-1.21381 0.373877 0.556517 
-1.39618 0.267162 0.666482 
-0.955301 -0.462279 -0.978398 
-1.04767 -1.02427 -0.175198 
-1.02718 -1.31952 0.723048 
-0.889911 -1.10265 0.11158 
-1.12993 -1.39491 0.489725 
-0.538065 -1.2747 -0.160267 
-0.723059 -1.66312 0.116365 
-0.605081 -0.0431837 -0.793867 
-0.90003 -0.318046 -0.94328 
-0.611041 -0.217119 -0.898023 
-0.955136 -1.3227 0.385727 
-1.02452 -0.884964 -0.287193 
-1.10744 -1.37903 0.502874 
-0.316439 -1.04028 0.151319 
-0.436871 -0.563472 0.0291658 
-0.489687 -0.721484 0.0444732 
-0.520574 -0.290503 -0.85494 
-0.266285 -1.06646 0.147432 
-0.592789 -1.27773 -0.149277 
-0.977614 -0.524532 -0.459226 
-0.91927 -0.381467 -0.406272 
-0.888233 -0.353024 -0.3989 
-0.796661 -0.306729 -0.438224 
-0.707715 -0.301737 -0.363251 
-0.735801 -0.249005 -0.317101 
-0.741325 -0.132225 -0.323958 
-0.704928 -0.0382115 -0.357196 
-0.749144 -0.134458 -0.359736 
-0.700143 -0.188247 -0.464754 
-0.581041 -0.186755 -0.333567 
-0.341847 0.00635338 0.0204914 
-0.544058 -0.0334505 -0.0984551 
-0.569023 -0.00252853 0.0128342 
-0.558238 -0.187992 -0.253728 
-0.686552 -0.255461 -0.101891 
-0.645798 -0.245002 -0.176221 
-0.597786 -0.242808 -0.340413 
-0.645893 -0.299683 -0.0686307 
-0.62906 -0.300239 -0.0347686 
-0.891892 -0.128913 -0.077478 
-0.730286 -0.294987 -0.155233 
-0.595364 -0.213081 -0.271815 
-0.685796 -0.185129 -0.520425 
-0.421116 -0.239798 -0.271102 
-0.216794 -0.0998277 -0.28684 
-0.136109 -0.181683 -0.20789 
-0.0612911 -0.248677 -0.11548 
-0.240096 -0.229127 -0.267177 
-0.319015 -0.208564 -0.291898 
-0.289316 -0.26769 -0.283519 
-0.356233 -0.28163 -0.266231 
-0.332877 -0.0746222 -0.373357 
-0.317085 -0.28077 0.0485335 
-0.462856 -0.365142 -0.0792353 
-0.418367 -0.324527 -0.172545 
-0.458429 -0.357388 -0.229686 
-0.442627 -0.378183 -0.223432 
-0.471804 -0.377396 -0.256716 
-0.438353 -0.391842 -0.246967 
-0.464784 -0.406651 -0.23753 
-0.463079 -0.406213 -0.289993 
-0.465501 -0.468185 -0.254913 
-0.391783 -0.42969 -0.302403 
-0.216662 -0.0891426 -0.141012 
-0.44054 -0.376704 -0.315397 
-0.403666 -0.302298 -0.423363 
-0.496749 -0.319568 -0.504013 
-0.469449 -0.341834 -0.539442 
-0.40393 -0.34385 -0.441752 
-0.442033 -0.365372 -0.452914 
-0.340006 -0.348357 -0.454477 
-0.293175 -0.335885 -0.546405 
-0.364878 -0.367788 -0.402264 
-0.655885 -0.398355 -0.492924 
-0.732762 -1.11819 -0.479642 
-0.574592 -0.442673 -0.492546 
-0.617191 -0.505296 -0.53519 
-0.600382 -0.501029 -0.544688 
-0.589498 -0.48897 -0.526879 
-0.566965 -0.514376 -0.524867 
-0.528339 -0.523118 -0.495114 
-0.561821 -0.499179 -0.456267 
-0.551234 -0.554626 -0.440716 
-0.635454 -0.591364 -0.304246 
-0.672721 -0.606555 -0.260078 
-0.456459 -0.618515 -0.747748 
-0.45606 -0.623139 -0.68435 
-0.458334 -0.672505 -0.574395 
-0.450364 -0.685228 -0.548764 
-0.416773 -0.624827 -0.571365 
-0.413505 -0.641222 -0.527761 
-0.319972 -0.591718 -0.509913 
-0.351284 -0.599198 -0.499954 
-0.340467 -0.568627 -0.509221 
-0.357958 -0.565884 -0.526508 
-0.367517 -0.652789 -0.511012 
-0.320939 -0.626101 -0.423439 
-0.294783 -0.683593 -0.361044 
-0.37811 -0.71443 -0.414787 
-0.367393 -0.736937 -0.40904 
-0.196251 -0.588005 -0.254763 
-0.151225 -0.60905 -0.491584 
-0.082549 -0.511333 -0.417214 
-0.0126138 -0.443404 -0.282691 
-0.103113 -0.550538 -0.226177 
-0.0864763 -0.319 -0.76847 
-0.051831 -0.411976 -0.673812 
-0.0259013 -0.839601 -0.421559 
0.0431774 -0.474959 -0.740354 
0.00184723 -0.564938 -0.688362 
-0.0705344 -0.587375 -0.751321 
0.00144617 -0.603776 -0.677154 
0.031196 -0.589339 -0.673822 
0.0613147 -0.665685 -0.663818 
0.00888346 -0.746137 -0.716285 
-0.0584218 -0.74525 -0.638153 
-0.0731781 -0.666225 -0.783912 
0.107469 -0.718552 -0.72762 
0.168147 -0.726958 -0.746075 
0.138941 -0.714039 -0.678171 
0.175829 -0.717918 -0.685343 
0.191468 -0.739107 -0.608191 
0.194803 -0.77682 -0.342492 
0.1953 -0.699976 -0.588096 
0.191516 -0.642777 -0.527605 
0.194306 -0.578434 -0.504539 
0.228641 -0.573369 -0.551135 
0.270831 -0.538043 -0.610399 
0.37551 -0.589927 -0.549624 
0.469193 -0.634055 -0.404883 
0.311086 -0.414967 -0.376619 
0.280525 -0.444081 -0.299109 
0.201218 -0.288251 -0.245622 
0.213701 -0.289044 -0.445289 
0.274704 -0.313971 -0.548744 
0.297545 -0.331055 -0.619574 
0.312378 -0.305812 -0.670801 
0.29697 -0.207885 -0.703759 
0.267597 -0.161168 -0.719332 
0.282529 -0.124177 -0.714355 
0.294307 -0.0691467 -0.74106 
0.241793 0.0198766 -0.82787 
0.25519 0.0823479 -0.864589 
0.254936 0.128743 -0.921176 
0.339783 0.17903 -0.865429 
0.330218 0.218124 -0.857659 
0.387543 0.12297 -0.85264 
0.396298 0.289806 -0.867623 
0.385833 0.0788387 -0.888338 
0.379777 0.0370641 -0.898641 
0.382918 0.00611149 -0.929269 
0.42596 -0.039193 -0.919743 
0.413475 -0.0745565 -0.940389 
0.420783 -0.0047997 -0.981944 
0.425698 -0.00251395 -0.96593 
0.435871 0.220122 -1.08284 
0.454507 0.0851162 -1.04754 
0.466282 0.0687636 -1.01473 
0.514968 0.0956008 -0.936212 
0.607958 0.144458 -0.913325 
0.557204 0.0630518 -0.8337 
0.56082 0.0118822 -0.756817 
0.569033 0.0390834 -0.739304 
0.65776 0.355574 -0.650136 
0.56935 -0.0228265 -0.717183 
0.581179 -0.0697411 -0.73052 
0.569968 -0.125076 -0.723899 
0.601739 -0.116652 -0.723407 
0.621992 -0.111145 -0.707959 
0.674567 -0.108815 -0.682621 
0.707892 -0.0970478 -0.671093 
0.741398 -0.0772449 -0.687114 
0.829084 -0.0276139 -0.675936 
0.990062 0.0299745 -0.62365 
0.782808 -0.116521 -0.695656 
0.819679 -0.143209 -0.76577 
0.820685 -0.157974 -0.769763 
0.762042 -0.189884 -0.837538 
0.800762 -0.230215 -0.836377 
0.971463 -0.217003 -0.798067 
0.758883 -0.266836 -0.808334 
0.790189 -0.25483 -0.745818 
0.833834 -0.315899 -0.717303 
0.746443 -0.286425 -0.689343 
0.738443 -0.340955 -0.672907 
0.755349 -0.468967 -0.62933 
0.788265 -0.371765 -0.610295 
0.940904 -0.463688 -0.462551 
0.809424 -0.310711 -0.568409 
0.933249 -0.261524 -0.554962 
0.790883 -0.264201 -0.565178 
0.79338 -0.261756 -0.555588 
0.830534 -0.224588 -0.511883 
1.10336 -0.178321 -0.468818 
0.879974 -0.175489 -0.442622 
0.812431 -0.293295 -0.413202 
0.776529 -0.294787 -0.451634 
0.778202 -0.343938 -0.373039 
0.870747 -0.416362 -0.380604 
0.680639 -0.304334 -0.462891 
0.655168 -0.259088 -0.49185 
0.655819 -0.234821 -0.488845 
0.675333 -0.271647 -0.374133 
0.629574 -0.240735 -0.445404 
0.612986 -0.229808 -0.411267 
0.571622 -0.223014 -0.343904 
0.634728 -0.232295 -0.244385 
0.694537 -0.139855 -0.365001 
0.768703 -0.107753 -0.381891 
0.685322 -0.0948375 -0.353563 
0.692037 -0.0645844 -0.369817 
0.655184 -0.0692372 -0.428172 
0.644268 -0.076417 -0.434856 
0.694127 0.109805 -0.413704 
0.627029 -0.0577641 -0.45766 
0.610444 -0.0880287 -0.473256 
0.614173 -0.0719025 -0.454058 
0.546693 -0.0484329 -0.416013 
0.478769 0.0184645 -0.372588 
0.457882 -0.0454011 -0.415938 
0.49596 -0.0274154 -0.476635 
0.482302 0.122589 -0.480793 
0.490033 0.0397198 -0.530662 
0.60689 0.316978 -0.551836 
0.397577 0.0224554 -0.565037 
0.441548 0.0393956 -0.529112 
0.447924 0.195621 -0.521696 
0.362733 0.150557 -0.56177 
0.30643 0.188032 -0.571523 
0.290145 0.351317 -0.429932 
0.19409 0.157815 -0.451187 
0.188966 0.147033 -0.540205 
0.176069 0.150544 -0.522332 
0.119731 0.157284 -0.58138 
0.0730408 0.189747 -0.607273 
-0.0127531 0.179756 -0.666364 
0.0182108 0.280107 -0.668864 
-0.0507288 0.33413 -0.706153 
-0.00154478 0.385775 -0.712077 
-0.0687279 0.36642 -0.709574 
-0.135088 0.408631 -0.709123 
-0.177536 0.463162 -0.709027 
-0.131681 0.487396 -0.749105 
-0.0633093 0.52265 -0.801122 
-0.0709768 0.573627 -0.864917 
0.0812608 0.675259 -0.807942 
-0.015692 0.617042 -0.736712 
0.000706071 0.639935 -0.718186 
0.0244203 0.629209 -0.663168 
-0.0183604 0.659296 -0.595857 
-0.0501225 0.674267 -0.549859 
-0.0387978 0.665156 -0.543185 
-0.089573 0.745651 -0.523287 
-0.0946489 0.776544 -0.518726 
-0.142699 0.809801 -0.536349 
-0.234659 0.805961 -0.512866 
-0.269615 0.813941 -0.541952 
-0.305664 0.770334 -0.640488 
-0.263442 0.746643 -0.600338 
-0.189256 0.831853 -0.538968 
-0.179449 0.880339 -0.542428 
-0.169901 0.874763 -0.59512 
-0.172011 0.867405 -0.715203 
-0.151123 0.892898 -0.634131 
-0.162075 0.93843 -0.737139 
-0.144034 0.938756 -0.634317 
-0.149305 0.934108 -0.595329 
-0.114103 0.974167 -0.575606 
-0.109821 1.14026 -0.549786 
-0.0714161 1.02572 -0.517278 
0.0508662 1.09347 -0.579001 
-0.0492566 1.05717 -0.465934 
-0.0241718 0.986681 -0.418839 
0.040086 0.987402 -0.367555 
0.0784655 0.95543 -0.323498 
-0.0100905 0.970628 -0.294706 
-0.014839 0.995459 -0.267206 
0.116844 1.06701 -0.0478012 
-0.0113426 1.05661 -0.249939 
-0.0598884 1.07526 -0.246437 
-0.096281 1.08128 -0.237183 
-0.156276 1.00477 -0.241357 
-0.180253 1.00463 -0.224186 
-0.137429 0.969723 -0.196486 
-0.132893 0.928948 -0.180063 
-0.075068 0.812248 -0.164235 
-0.0729376 0.852317 -0.138672 
-0.0995732 0.882906 -0.0728913 
-0.129723 0.883726 -0.0544126 
-0.0259767 0.957063 0.0898876 
-0.200045 1.10382 0.0841121 
-0.23007 0.97738 0.0543152 
-0.344361 0.855664 0.149072 
-0.113415 0.950652 0.243888 
-0.313036 0.900952 0.117783 
-0.33491 0.862127 0.0878895 
-0.294735 0.96832 0.116862 
-0.336285 0.821643 0.0269091 
-0.138991 0.931039 0.195978 
-0.35392 0.75132 -0.033791 
-0.40029 0.792349 -0.00110091 
-0.454784 0.875368 0.0937945 
-0.502712 0.85287 0.0747851 
-0.539026 0.876494 -0.0441119 
-0.572927 0.875441 -0.0435246 
-0.547849 0.821757 0.114665 
-0.540602 0.796067 0.120194 
-0.536818 0.763585 0.133602 
-0.564995 0.742527 0.163125 
-0.574111 0.653163 0.0520693 
-0.548709 0.577792 -0.037579 
-0.597504 0.619204 0.0535742 
-0.670398 0.618059 0.135048 
-0.721878 0.556044 0.104104 
-0.716305 0.559306 0.125309 
-0.67478 0.659463 0.195834 
-0.676642 0.686679 0.219424 
-0.741584 0.740012 0.161107 
-0.739362 0.743303 0.17453 
-0.769903 0.76347 0.141967 
-0.689995 0.718419 0.240721 
-0.652518 0.704291 0.294305 
-0.65052 0.682261 0.306053 
-0.673266 0.699592 0.325794 
-0.650584 0.77543 0.39136 
-0.585576 0.728375 0.273216 
-0.593895 0.767617 0.279084 
-0.55162 0.78072 0.289098 
-0.407199 0.853704 0.470172 
-0.463835 0.850961 0.380289 
-0.430683 0.851983 0.428939 
-0.609884 0.842624 0.432971 
-0.559464 0.845565 0.298492 
-0.538734 0.85257 0.28207 
-0.582198 0.930779 0.26692 
-0.578549 0.952936 0.258189 
-0.57662 0.930534 0.266317 
-0.539568 0.896611 0.264122 
-0.455853 0.892323 0.31082 
-0.476697 0.815595 0.24335 
-0.494402 0.798642 0.21858 
-0.409517 0.728077 0.190243 
-0.341456 0.765457 0.218181 
-0.235385 0.73054 0.249832 
-0.169878 0.762029 0.213916 
-0.131697 0.695336 0.166918 
-0.188183 0.65907 0.150548 
-0.177185 0.648349 0.139148 
-0.100534 0.54665 0.0538078 
-0.1706 0.539023 0.0664249 
-0.140243 0.595927 0.11096 
-0.0786897 0.618649 0.174268 
0.028616 0.622342 0.175732 
0.09889 0.636167 0.140915 
0.0719264 0.641748 0.168024 
0.0542928 0.653706 0.221029 
0.00338416 0.594029 0.227184 
0.037419 0.487627 0.269227 
0.0577256 0.456706 0.218845 
0.0913758 0.296782 0.0607049 
0.0469562 0.268333 0.136422 
0.0804655 0.358764 0.142969 
-0.0876602 0.281393 0.335286 
-0.445868 0.376255 0.455079 
0.364557 0.698828 0.0106684 
0.326888 0.821059 0.332334 
0.412816 0.700292 0.0642109 
-0.203592 0.378571 -0.150535 
0.507163 0.343851 0.164644 
0.0424728 0.751464 0.511116 
0.468574 0.47288 0.522985 
0.722566 0.17736 0.355334 
0.492777 0.0554219 0.264399 
0.369297 0.0468533 0.264411 
0.363024 0.0643298 0.282799 
0.371382 0.0899513 0.304522 
0.304243 0.211925 0.447457 
0.264958 0.00871026 0.330387 
0.279339 0.232373 0.500683 
0.150604 0.038943 0.43678 
0.141092 -0.00923958 0.50738 
0.281197 0.0958513 0.534885 
0.32549 -0.02479 0.626258 
0.248316 0.0785113 0.582908 
0.11109 -0.0986673 0.618644 
0.310279 -0.15283 0.436191 
0.167945 -0.180605 0.6039 
0.148229 -0.224989 0.60536 
0.0847372 -0.199416 0.50687 
0.0353521 -0.207253 0.556185 
0.00699271 -0.224378 0.65449 
-0.0189576 -0.254389 0.681238 
-0.0245103 -0.251545 0.679283 
-0.0357201 -0.266684 0.67536 
-0.0495112 -0.206016 0.543301 
-0.0383854 -0.181757 0.540855 
-0.0933365 -0.19546 0.640855 
-0.111821 -0.164273 0.636208 
-0.181499 -0.149898 0.538955 
-0.355736 -0.27415 0.545573 
-0.148853 -0.0981196 0.627907 
-0.113297 -0.119089 0.656983 
-0.100625 -0.0871878 0.704492 
-0.053978 -0.100991 0.629384 
-0.108348 -0.0894386 0.715572 
-0.126446 -0.0253757 0.754922 
-0.150043 0.0545864 0.7619 
-0.118484 0.0868853 0.721554 
-0.0907986 0.0794897 0.810495 
0.103198 0.128574 0.686661 
-0.0810015 0.0923287 0.847347 
-0.0690077 -0.00214141 0.84688 
-0.0706687 0.0377082 0.90428 
0.00459457 -0.0290087 0.838424 
-0.053987 -0.00469404 0.934772 
-0.00553372 -0.0442008 0.885539 
-0.0353894 -0.086506 0.884326 
-0.214943 -0.127155 0.952292 
-0.0866359 -0.131353 0.997267 
-0.15029 -0.23992 1.02435 
-0.120666 -0.248627 1.05571 
-0.0103242 -0.188624 1.06362 
0.0524448 -0.199039 1.0634 
0.101726 -0.238837 0.984887 
0.107074 -0.19734 1.05851 
0.185121 -0.0951511 1.03099 
0.100866 -0.157353 1.13651 
0.0909953 -0.156839 1.18583 
0.0972846 -0.0941164 1.22046 
0.144653 -0.00324932 1.23103 
0.259314 0.147679 1.08191 
0.228922 0.0811537 1.24097 
0.471872 0.262114 1.25489 
0.313751 0.0487401 1.16377 
0.225447 0.0769046 1.31185 
0.24904 -0.0423336 1.31363 
0.254672 -0.0190048 1.28589 
0.264629 -0.106738 1.33404 
0.29126 -0.11709 1.35137 
0.344282 -0.0696523 1.3885 
0.3686 -0.0964631 1.46019 
0.485157 -0.0241255 1.46385 
0.392654 -0.112274 1.36007 
0.34742 -0.138639 1.31565 
0.385991 -0.126771 1.2936 
0.36743 -0.056715 1.17069 
0.363894 -0.138189 1.27984 
0.361044 -0.152023 1.26386 
0.39593 -0.064445 1.07317 
0.356941 -0.16099 1.24161 
0.383536 -0.158271 1.18515 
0.662514 -0.110192 0.915024 
0.426153 -0.229035 1.20117 
0.476687 -0.238741 1.16985 
0.519447 -0.22189 1.19084 
0.788985 -0.195826 1.31105 
0.535082 -0.204209 1.16921 
0.512413 -0.0796094 1.09974 
0.551548 -0.23497 1.1046 
0.661099 -0.156786 0.94029 
0.580168 -0.348 1.03876 
0.418557 -0.321094 1.15622 
0.434408 -0.320876 0.96198 
0.410432 -0.344245 1.13812 
0.370979 -0.360502 1.19881 
0.369025 -0.377684 1.24382 
0.524889 -0.389609 1.26499 
0.373544 -0.391233 1.27444 
0.373783 -0.404113 1.30077 
0.419492 -0.423662 1.34586 
0.534159 -0.503552 1.35815 
0.382598 -0.430619 1.36273 
0.356426 -0.436195 1.38517 
0.330446 -0.404733 1.44621 
0.633224 0.158415 1.17162 
0.332369 -0.476321 1.44309 
0.255175 -0.451761 1.38833 
0.204937 -0.435763 1.35233 
0.142434 -0.431648 1.35742 
0.209924 -0.507559 1.29452 
0.230027 -0.587027 1.27912 
0.238769 -0.612657 1.3099 
0.279844 -0.723302 1.39787 
0.280424 -0.638178 1.27261 
0.305841 -0.665703 1.23817 
0.507725 -0.716302 1.29966 
0.513042 -0.721269 1.07415 
0.337009 -0.682189 1.1541 
0.279502 -0.670296 1.1641 
0.183376 -0.63472 1.12262 
0.151223 -0.636474 1.11763 
0.112444 -0.616207 1.07809 
0.129373 -0.644359 1.0512 
0.190076 -0.638305 0.923919 
0.315336 -0.615155 0.67473 
0.160723 -0.679853 0.943857 
0.19901 -0.877483 0.900104 
0.225102 -0.942394 0.94822 
