0.01574 -0.831239 -0.00655454 
-0.0189898 -0.826741 0.00584338 
0.0543903 -0.833179 0.0802691 
0.0273412 -0.845918 0.0862351 
0.0458252 -0.830847 0.149459 
0.0507575 -0.853157 0.175674 
0.112709 -0.791576 0.233336 
0.129914 -0.776055 0.207509 
0.152162 -0.792237 0.184494 
0.161605 -0.747048 0.187623 
0.128267 -0.726705 0.157157 
0.129769 -0.706959 0.0867592 
0.193552 -0.702398 0.100152 
0.201963 -0.678702 0.0547998 
0.20741 -0.675764 0.101659 
0.254239 -0.59477 0.0836077 
0.216409 -0.606312 0.0948435 
0.12485 -0.590882 0.120337 
0.113704 -0.601576 0.0617366 
0.0788203 -0.55915 0.0663384 
0.0575194 -0.582357 0.026402 
0.0784352 -0.491785 0.0627629 
0.0992382 -0.373579 0.036665 
0.0399616 -0.044865 0.358244 
0.118548 -0.330477 0.483626 
0.104558 -0.466854 0.38091 
0.0541986 -0.567771 0.3293 
-0.00448788 -0.577303 0.262911 
-0.0159409 -0.467415 0.267937 
-0.0534788 -0.582713 0.231081 
-0.0512122 -0.57654 0.255448 
-0.0680128 -0.585222 0.259133 
-0.132934 -0.624599 0.270691 
-0.183037 -0.680872 0.367143 
-0.151966 -0.611462 0.322004 
-0.206233 -0.657095 0.2704 
-0.232833 -0.665406 0.202441 
-0.178859 -0.615512 0.186828 
-0.228075 -0.607669 0.164251 
-0.263042 -0.587959 0.131315 
-0.257149 -0.536148 0.135198 
-0.202322 -0.417916 0.133065 
-0.269515 -0.457001 0.154692 
-0.270444 -0.428634 0.188619 
-0.248736 -0.41647 0.20543 
-0.251333 -0.42948 0.259875 
-0.247455 -0.393367 0.299979 
-0.252036 -0.444969 0.33573 
-0.31216 -0.454923 0.301045 
-0.378506 -0.515447 0.300902 
-0.414543 -0.502021 0.3039 
-0.475227 -0.503632 0.307737 
-0.466175 -0.43823 0.391461 
-0.454664 -0.403992 0.429405 
-0.4499 -0.387464 0.414683 
-0.462456 -0.346969 0.371526 
-0.452603 -0.32024 0.358991 
-0.484109 -0.307481 0.320143 
-0.516056 -0.297049 0.253644 
-0.518692 -0.267724 0.24331 
-0.542009 -0.240336 0.224517 
-0.482865 -0.182813 0.234517 
-0.423247 -0.162724 0.255162 
-0.391255 -0.187742 0.261447 
-0.321721 -0.0992724 0.165101 
-0.484011 -0.061872 0.184063 
-0.484941 -0.0503249 0.349777 
-0.476672 -0.0557965 0.349768 
-0.503722 0.0304158 0.313424 
-0.512536 -0.00646008 0.362462 
-0.519381 0.0338698 0.42586 
-0.348433 0.214262 0.42529 
-0.53228 0.01287 0.435785 
-0.502262 0.0435824 0.451127 
-0.505945 -0.0279119 0.448688 
-0.465768 -0.0522009 0.50007 
-0.436328 -0.111454 0.533518 
-0.553287 -0.0782122 0.538725 
-0.564814 -0.123316 0.55065 
-0.584135 -0.142659 0.567979 
-0.637345 -0.136443 0.533979 
-0.679245 -0.124549 0.457594 
-0.695168 -0.167849 0.47317 
-0.735883 -0.173123 0.544418 
-0.781828 -0.154625 0.563866 
-0.784425 -0.249598 0.548873 
-0.805678 -0.273356 0.611715 
-0.791127 -0.171777 0.624287 
-0.795384 -0.180467 0.663258 
-0.818991 -0.159262 0.650931 
-0.769967 -0.107155 0.68775 
-0.813598 -0.157133 0.699886 
-0.809698 -0.167918 0.723101 
-0.852156 -0.142534 0.670033 
-0.886016 -0.113252 0.704119 
-0.897493 -0.0881199 0.679713 
-0.903658 0.00513159 0.699765 
-0.821713 0.00288436 0.656026 
-0.720271 0.123087 0.726229 
-0.781984 0.0404158 0.610433 
-0.796747 0.00822803 0.558994 
-0.849706 -0.0402082 0.545371 
-0.880931 -0.030981 0.549133 
-0.937376 -0.0665243 0.501072 
-1.011 -0.111618 0.477132 
-0.96179 -0.0459848 0.415625 
-0.963752 0.0143832 0.404585 
-0.982746 0.0538452 0.430035 
-0.963572 0.0743708 0.397551 
-0.976596 0.0871014 0.389564 
-0.932812 0.0792394 0.407393 
-0.95497 0.155976 0.456045 
-0.872964 0.0981199 0.384202 
-0.804406 0.0573516 0.336693 
-0.833432 0.10101 0.335714 
-0.823587 0.139074 0.354899 
-0.691596 0.235871 0.374279 
-0.733485 0.233387 0.434529 
-0.718913 0.250657 0.188949 
-0.79902 0.216566 0.197923 
-0.878825 0.193458 0.228532 
-0.920072 0.199641 0.24735 
-0.952777 0.231352 0.275787 
-0.956653 0.235521 0.247383 
-0.943155 0.238387 0.237716 
-0.94005 0.290166 0.216952 
-0.917685 0.378738 0.233431 
-0.937399 0.335153 0.184313 
-0.953228 0.311085 0.176697 
-0.99393 0.309481 0.157998 
-0.824509 0.416313 -0.0136901 
-1.04426 0.324022 0.138114 
-1.04706 0.297541 0.126376 
-1.06699 0.327057 0.133668 
-1.1007 0.463838 0.0542024 
-1.09177 0.400832 0.0765163 
-1.17178 0.299932 0.202356 
-1.1191 0.260974 0.165836 
-1.13332 0.249664 0.145284 
-1.12032 0.230418 0.123904 
-1.11394 0.201018 0.0925538 
-1.07183 0.19044 0.0859155 
-1.06304 0.230567 -0.0191272 
-1.01798 0.214502 0.000771934 
-0.928874 0.241752 -0.00766985 
-0.948487 0.192192 0.0311426 
-0.984911 0.155745 0.10518 
-1.01176 0.1344 0.120706 
-1.03742 0.128672 0.139813 
-1.0605 0.141611 0.140738 
-1.03678 0.120507 0.148227 
-1.05227 0.101912 0.206195 
-1.08685 0.069197 0.231109 
-1.08346 0.0438802 0.24995 
-1.05489 0.0142305 0.22885 
-1.04354 -0.0257584 0.178176 
-1.06194 -0.0509296 0.140127 
-1.11395 -0.0444995 0.0798357 
-1.02384 -0.029767 0.013424 
-1.01919 -0.0238326 0.0627278 
-0.910121 -0.0285293 0.0265579 
-0.879839 -0.022052 0.0556459 
-0.8087 0.023551 0.0456297 
-0.882206 -0.0630812 0.120349 
-0.835938 -0.0687191 0.152931 
-0.910894 -0.12236 0.167939 
-0.95196 -0.163483 0.189162 
-0.972605 -0.198861 0.182047 
-0.963745 -0.21951 0.143111 
-0.903332 -0.288556 0.0521999 
-0.893608 -0.301566 0.0280744 
-0.956896 -0.277164 -0.0630449 
-0.975855 -0.27567 -0.131522 
-0.967539 -0.271662 -0.16839 
-0.888729 -0.229137 -0.213662 
-0.900201 -0.106222 -0.327924 
-0.826473 -0.163186 -0.253881 
-0.756635 -0.153201 -0.240611 
-0.748887 -0.22349 -0.192946 
-0.732417 -0.235627 -0.216189 
-0.678679 -0.290748 -0.145253 
-0.715734 -0.311385 -0.214433 
-0.720675 -0.34729 -0.265853 
-0.76955 -0.374875 -0.271994 
-0.722509 -0.402635 -0.306607 
-0.682714 -0.439358 -0.316373 
-0.631154 -0.36261 -0.332461 
-0.579121 -0.389324 -0.330092 
-0.554904 -0.344495 -0.334974 
-0.521881 -0.35936 -0.305961 
-0.581144 -0.323903 -0.359514 
-0.558005 -0.2326 -0.427833 
-0.571408 -0.273478 -0.435385 
-0.595377 -0.259699 -0.46641 
-0.625069 -0.284036 -0.477257 
-0.639237 -0.279236 -0.523812 
-0.715324 -0.281388 -0.557303 
-0.664755 -0.345817 -0.536617 
-0.768707 -0.41303 -0.531442 
-0.68867 -0.410795 -0.55419 
-0.636057 -0.412535 -0.564581 
-0.613988 -0.450268 -0.557076 
-0.605598 -0.513881 -0.534722 
-0.552084 -0.468827 -0.558895 
-0.546399 -0.490628 -0.562067 
-0.511154 -0.464138 -0.581046 
-0.50529 -0.416428 -0.572325 
-0.470726 -0.405237 -0.634604 
-0.462052 -0.364538 -0.665564 
-0.476322 -0.412249 -0.652765 
-0.472137 -0.387389 -0.680887 
-0.496379 -0.507579 -0.725768 
-0.414386 -0.497546 -0.711279 
-0.38294 -0.497409 -0.73709 
-0.369825 -0.504508 -0.651427 
-0.354134 -0.522769 -0.652154 
-0.289959 -0.651835 -0.645254 
-0.339384 -0.590293 -0.59007 
-0.315341 -0.540972 -0.572285 
-0.326887 -0.496837 -0.540294 
-0.324782 -0.437367 -0.52714 
-0.325222 -0.460991 -0.530522 
-0.286284 -0.463352 -0.454932 
-0.246833 -0.47233 -0.396042 
-0.259754 -0.432454 -0.465791 
-0.277378 -0.423338 -0.537346 
-0.2481 -0.42909 -0.565941 
-0.158289 -0.439724 -0.540384 
-0.138935 -0.440586 -0.552314 
-0.106684 -0.406794 -0.602162 
-0.182023 -0.406396 -0.65269 
-0.184299 -0.408446 -0.709715 
-0.202703 -0.396102 -0.680471 
-0.218164 -0.345882 -0.668215 
-0.246511 -0.309571 -0.660419 
-0.248506 -0.306499 -0.670195 
-0.219667 -0.289009 -0.714219 
-0.239897 -0.267402 -0.685659 
-0.256661 -0.204372 -0.67746 
-0.255477 -0.185788 -0.743375 
-0.32534 -0.185829 -0.628482 
-0.324736 -0.178124 -0.580639 
-0.303093 -0.195306 -0.551102 
-0.275776 -0.207337 -0.552222 
-0.224156 -0.195655 -0.534383 
-0.165718 -0.178578 -0.517714 
-0.135667 -0.185218 -0.487454 
-0.0446255 -0.190276 -0.446625 
-0.10748 -0.152806 -0.517826 
-0.0850185 -0.145436 -0.530999 
-0.131757 -0.0790116 -0.569902 
-0.107757 -0.00354723 -0.611547 
-0.15318 -0.0105707 -0.552247 
-0.181412 0.0202442 -0.566304 
-0.17094 -0.00437111 -0.536293 
-0.116549 0.0536112 -0.49008 
-0.146517 0.0219332 -0.466955 
-0.105718 0.0263505 -0.398828 
-0.151994 -0.00646604 -0.387537 
-0.159206 -0.0183265 -0.339039 
-0.160078 -0.0242087 -0.309377 
-0.248139 -0.0602067 -0.334385 
-0.257155 -0.0574653 -0.362078 
-0.27822 -0.0287302 -0.386724 
-0.317069 0.00987172 -0.39967 
-0.343812 -0.000298711 -0.428296 
-0.342069 0.0503333 -0.442729 
-0.36066 0.0957455 -0.479148 
-0.351074 0.128464 -0.446163 
-0.315326 0.189389 -0.428698 
-0.326342 0.160226 -0.3611 
-0.300084 0.18883 -0.31109 
-0.304933 0.196114 -0.234693 
-0.361038 0.169095 -0.231004 
-0.407453 0.169606 -0.26455 
-0.456084 0.169011 -0.313056 
-0.500145 0.189965 -0.273023 
-0.54099 0.210737 -0.33617 
-0.540761 0.293516 -0.408595 
-0.474438 0.341681 -0.384423 
-0.449352 0.383715 -0.366949 
-0.45588 0.434442 -0.297567 
-0.435965 0.429314 -0.29371 
-0.41132 0.450456 -0.155981 
-0.397975 0.513957 -0.174966 
-0.402855 0.606684 -0.195731 
-0.279056 0.642085 -0.204373 
-0.255139 0.680038 -0.237294 
-0.17393 0.637222 -0.243488 
-0.149513 0.635289 -0.227055 
-0.124336 0.614119 -0.250818 
-0.0811019 0.57759 -0.238908 
-0.0836843 0.586722 -0.246103 
-0.0616524 0.709333 -0.120361 
-0.0332361 0.762076 -0.118038 
-0.0370366 0.728241 -0.149033 
-0.0185485 0.641984 -0.133459 
0.0533627 0.635961 -0.167678 
0.160425 0.622867 -0.24058 
0.0427816 0.575949 -0.0697848 
0.025344 0.570919 -0.0848046 
0.00531602 0.558821 -0.0710527 
0.00502551 0.579908 -0.0257407 
-0.0112879 0.607102 -0.0274891 
-0.0222365 0.614437 -0.011578 
-0.0560413 0.64248 -0.000349375 
-0.0382528 0.639509 0.0385493 
-0.0271377 0.621075 0.0664142 
-0.019281 0.590166 0.145767 
0.00131321 0.607357 0.192052 
0.125907 0.727234 0.245171 
0.168398 0.751855 0.258857 
0.182013 0.767419 0.253456 
0.220697 0.780464 0.274717 
0.184268 0.856998 0.214972 
0.252093 0.799115 0.320952 
0.248325 0.80071 0.327957 
0.246968 0.814833 0.364788 
0.279018 0.839267 0.386047 
0.287715 0.851455 0.410275 
0.289953 0.845148 0.421428 
0.200171 0.791512 0.468358 
0.238832 0.769545 0.450788 
0.29067 0.740954 0.431988 
0.30913 0.721542 0.441436 
0.341508 0.694003 0.511951 
0.297246 0.684735 0.431727 
0.27078 0.638894 0.426672 
0.269787 0.641448 0.421915 
0.219197 0.611158 0.418726 
0.309257 0.684513 0.386272 
0.376903 0.68782 0.37152 
0.413269 0.672271 0.369516 
0.371725 0.676031 0.336402 
0.402588 0.650476 0.324507 
0.376715 0.613166 0.278498 
0.327576 0.560086 0.237838 
0.298963 0.635428 0.248357 
0.283994 0.648498 0.2047 
0.339119 0.711437 0.101613 
0.333356 0.719982 0.163251 
0.355819 0.74636 0.202314 
0.391991 0.784631 0.237831 
0.409699 0.839575 0.228817 
0.453768 0.925556 0.183513 
0.562381 0.905468 0.237631 
0.695248 0.864363 0.262776 
0.804097 0.824585 0.186309 
0.864645 0.697914 0.0679166 
0.929751 0.562339 0.0290113 
0.936338 0.587888 -0.001499 
1.02069 0.595774 0.0729351 
0.983051 0.564082 0.120629 
1.02016 0.565411 0.160313 
0.897841 0.549984 0.243373 
0.886888 0.538572 0.158986 
0.846977 0.484426 0.135277 
0.869448 0.497213 0.0798232 
0.814334 0.510468 -0.0103378 
0.822347 0.432202 0.0405929 
0.746013 0.448269 0.0390324 
0.685093 0.438385 0.0244369 
0.760227 0.359484 0.0597726 
0.808421 0.333358 0.0815008 
0.836035 0.291221 0.0803444 
0.889651 0.252965 0.0871849 
0.943581 0.262854 0.0672641 
1.00991 0.279451 0.0758893 
0.983794 0.279986 -0.00372213 
1.00337 0.275794 0.01303 
1.00178 0.281086 -0.034735 
1.06771 0.311372 -0.0558913 
0.993581 0.303496 -0.0643895 
0.95564 0.31567 -0.102217 
0.948952 0.334265 -0.152852 
0.990715 0.313488 -0.168835 
1.07176 0.29144 -0.245865 
1.04339 0.208188 -0.244051 
0.962546 0.191689 -0.167779 
0.913086 0.17215 -0.170143 
0.892946 0.158524 -0.188578 
0.893793 0.149684 -0.202436 
0.886496 0.152142 -0.194811 
0.868069 0.165947 -0.242427 
0.897929 0.115752 -0.427914 
0.91135 0.132618 -0.413548 
0.864455 0.174308 -0.36676 
0.776055 0.230476 -0.436816 
0.828009 0.284947 -0.410619 
0.848825 0.32543 -0.384804 
0.790559 0.298912 -0.278531 
0.797756 0.255769 -0.254238 
0.747882 0.293305 -0.228822 
0.711001 0.345258 -0.239996 
0.726831 0.240435 -0.202969 
0.730877 0.189291 -0.191306 
0.713804 0.181236 -0.175032 
0.708427 0.150423 -0.203033 
0.499107 0.0603102 -0.167071 
0.657175 0.136787 -0.247289 
0.595475 0.136668 -0.311524 
0.634118 0.097727 -0.309856 
0.678446 0.0710309 -0.264473 
0.74169 0.0525844 -0.230749 
0.764303 0.0230252 -0.227515 
0.773221 0.0126993 -0.200561 
0.69222 0.0110526 -0.129187 
0.705648 0.032445 -0.152134 
0.704625 0.00650877 -0.151752 
0.699908 -0.00992488 -0.165808 
0.432384 -0.00619467 -0.145665 
0.729287 -0.0546916 -0.284391 
0.684947 -0.0800165 -0.270091 
0.520535 -0.192239 -0.391848 
0.664911 -0.1115 -0.267479 
0.678539 -0.112273 -0.259244 
0.587607 -0.15161 -0.184518 
0.643225 -0.158708 -0.160835 
0.734076 -0.126667 -0.162487 
0.753148 -0.134266 -0.148047 
0.763823 -0.154535 -0.142358 
0.778918 -0.212394 -0.13832 
0.835417 -0.1798 -0.161188 
0.832433 -0.217472 -0.184221 
0.851185 -0.205909 -0.172027 
0.900772 -0.128659 -0.15322 
0.905935 -0.116503 -0.167741 
0.900633 -0.122917 -0.206199 
0.937092 -0.120911 -0.289605 
0.970576 -0.107498 -0.25083 
0.97577 -0.122621 -0.198963 
1.05252 -0.200627 -0.277256 
1.02902 -0.10149 -0.16997 
1.03424 -0.0489411 -0.110309 
1.08738 -0.0529965 -0.0868615 
1.09762 -0.00677458 -0.0883093 
1.12193 -0.0622663 -0.0756012 
1.16042 -0.0427946 -0.0849481 
1.18143 -0.0863076 -0.106641 
1.16861 -0.115107 -0.0697578 
1.25241 -0.162486 -0.156023 
1.1399 -0.148805 -0.0645903 
1.09394 -0.176104 -0.04717 
1.01062 -0.357377 -0.0722843 
1.0739 -0.255676 -0.0542901 
1.09981 -0.21417 -0.0117604 
1.09359 -0.235342 -0.00376918 
1.11352 -0.237328 0.0193763 
1.14175 -0.268402 0.0779983 
1.18588 -0.329286 0.114231 
1.2233 -0.292862 0.0704449 
1.29281 -0.274553 0.0538343 
1.21619 -0.15082 0.0655219 
1.19203 -0.134359 0.0854475 
1.21433 -0.109616 0.103017 
1.21946 -0.0988515 0.119873 
1.28452 0.00723156 0.113943 
1.22716 -0.0326989 0.115809 
1.13948 0.00665343 0.114724 
1.12416 0.020951 0.129432 
1.12784 -0.00416732 0.125464 
1.07925 -0.0633773 0.123536 
1.0523 -0.0795491 0.14174 
1.06992 -0.0755361 0.200745 
1.05912 -0.117477 0.214401 
1.07197 -0.193832 0.323094 
1.01987 -0.178111 0.23631 
0.985528 -0.166643 0.182832 
0.968863 -0.1684 0.171042 
0.946602 -0.232976 0.178851 
0.9739 -0.120507 0.11164 
0.956176 -0.132741 0.107276 
0.929497 -0.131265 0.0877945 
0.915379 -0.257045 0.0619496 
0.909053 -0.124859 0.0697517 
0.884036 -0.107241 0.0891642 
0.898488 -0.0761683 0.0863884 
0.88206 -0.0614823 0.0785776 
0.840156 -0.00988315 0.0388547 
0.843518 -0.0745064 0.0617044 
0.823624 -0.124005 0.0789893 
0.736469 -0.217553 0.0790777 
0.738636 -0.160491 0.18537 
0.735198 -0.162193 0.215052 
0.632246 -0.132083 0.122412 
0.624508 -0.151559 0.109185 
0.656208 -0.00929529 0.0788451 
0.707401 -0.0318757 0.147499 
0.612424 0.0483468 0.136788 
0.458302 0.0689627 0.0800591 
0.67404 0.0449502 0.188406 
0.747539 0.0360223 0.238737 
0.805791 0.0701744 0.274255 
0.83629 0.113929 0.326947 
0.825325 0.159599 0.380974 
0.87974 0.167561 0.377863 
0.903115 0.199042 0.413453 
0.962138 0.200164 0.413153 
0.999213 0.183077 0.415988 
1.00639 0.198261 0.453157 
