-0.187437 0.635042 0.151327 
-0.23416 0.795681 0.11441 
-0.26447 0.808566 0.0706823 
-0.264754 0.829041 0.0393684 
-0.281653 0.840288 0.00844855 
-0.267055 0.813271 -0.0366354 
-0.300097 0.80719 -0.0564806 
-0.312555 0.808712 -0.0368935 
-0.360386 0.876345 -0.0483476 
-0.407195 0.923067 -0.0538899 
-0.394275 0.946446 -0.0501425 
-0.34952 0.931029 0.00458295 
-0.32901 0.964341 0.0313948 
-0.2696 1.04065 -0.00434345 
-0.296448 0.978255 0.0533514 
-0.236236 0.963905 0.121681 
-0.286961 0.964586 0.123285 
-0.306079 0.988693 0.150606 
-0.356516 1.01055 0.129773 
-0.384432 0.975606 0.139838 
-0.458047 1.02067 0.122445 
-0.433601 0.993614 0.17516 
-0.428453 0.981674 0.212564 
-0.417914 0.92114 0.19117 
-0.409568 0.904369 0.209179 
-0.401228 0.888754 0.235858 
-0.332927 0.852395 0.359577 
-0.403666 0.85217 0.250535 
-0.405241 0.811418 0.208031 
-0.42651 0.821852 0.191484 
-0.444125 0.761258 0.158811 
-0.470106 0.783349 0.118194 
-0.480196 0.7733 0.119156 
-0.516134 0.790335 0.106546 
-0.526551 0.788526 0.0896344 
-0.605611 0.836958 0.0595305 
-0.623267 0.83774 0.10562 
-0.681822 0.891612 0.142945 
-0.643073 0.892758 0.179528 
-0.656993 0.936942 0.229926 
-0.62356 0.852616 0.248379 
-0.638578 0.868098 0.286344 
-0.618864 0.818832 0.308913 
-0.596515 0.784704 0.331382 
-0.566436 0.738959 0.257021 
-0.577354 0.71314 0.289675 
-0.563946 0.680928 0.328264 
-0.597506 0.685119 0.272575 
-0.602193 0.688867 0.213471 
-0.609762 0.665949 0.2305 
-0.682223 0.66466 0.22175 
-0.697309 0.641989 0.217236 
-0.699484 0.600935 0.235454 
-0.678879 0.552161 0.241209 
-0.624939 0.531812 0.229507 
-0.599875 0.49031 0.294995 
-0.579207 0.548308 0.202502 
-0.449717 0.49886 0.277891 
-0.511999 0.5202 0.162488 
-0.508456 0.53951 0.161534 
-0.417939 0.457619 0.134345 
-0.531493 0.35897 0.128004 
-0.545026 0.484595 0.112793 
-0.58785 0.525139 0.0882273 
-0.634422 0.52432 0.080007 
-0.646949 0.563711 0.0264454 
-0.64547 0.538548 -0.00394792 
-0.660564 0.457066 -0.0488509 
-0.635792 0.485633 -0.0544797 
-0.597032 0.570788 -0.0521597 
-0.569167 0.601892 -0.0798045 
-0.550521 0.609832 -0.0623962 
-0.597511 0.615242 -0.217697 
-0.481328 0.616477 -0.153673 
-0.458993 0.596481 -0.133691 
-0.404932 0.483777 -0.127675 
-0.429844 0.472266 -0.155729 
-0.394277 0.40236 -0.205327 
-0.603656 0.224732 -0.339855 
-0.645307 0.191706 -0.357461 
-0.70416 0.103111 -0.333184 
-0.746047 0.0856258 -0.328612 
-0.796488 0.0370917 -0.338239 
-0.769286 -0.0172681 -0.241411 
-0.740724 -0.0017291 -0.205661 
-0.747064 0.0329453 -0.175639 
-0.774352 -6.60928e-05 -0.165482 
-0.766057 -0.00772736 -0.164582 
-0.733746 -0.0174428 -0.155515 
-0.757944 0.00390791 -0.124788 
-0.649037 0.0279336 -0.101205 
-0.629225 -0.0353645 -0.0108707 
-0.628964 -0.0635644 -0.106438 
-0.638497 -0.124124 -0.0622935 
-0.613414 -0.104837 -0.0843592 
-0.592729 -0.0473696 -0.146593 
-0.542447 -0.00720748 -0.117347 
-0.599533 -0.068352 -0.191805 
-0.626126 -0.0725966 -0.235497 
-0.604528 -0.0686124 -0.217421 
-0.632967 -0.0693777 -0.234918 
-0.649315 -0.0881871 -0.242629 
-0.676678 -0.074044 -0.212432 
-0.698254 -0.103234 -0.194415 
-0.78538 -0.182024 -0.150108 
-0.771014 -0.127182 -0.21995 
-0.767642 -0.131888 -0.267639 
-0.760924 -0.101508 -0.311558 
-0.758722 -0.113334 -0.394638 
-0.690273 -0.18924 -0.492906 
-0.63097 -0.280505 -0.507091 
-0.582633 -0.346825 -0.49986 
-0.566034 -0.423399 -0.520099 
-0.504979 -0.41484 -0.508592 
-0.423672 -0.549348 -0.761719 
-0.374503 -0.428326 -0.568829 
-0.342353 -0.405204 -0.51831 
-0.318566 -0.361621 -0.498006 
-0.327109 -0.237743 -0.381346 
-0.301026 -0.29121 -0.560513 
-0.29499 -0.239725 -0.562088 
-0.294819 -0.261903 -0.556944 
-0.303335 -0.214913 -0.619544 
-0.423326 -0.21008 -0.803275 
-0.277677 -0.208284 -0.611974 
-0.249353 -0.212299 -0.563879 
-0.215156 -0.187905 -0.559156 
-0.191329 -0.188003 -0.543323 
-0.158534 -0.198617 -0.551395 
-0.188516 -0.150153 -0.555116 
-0.192171 -0.12839 -0.568254 
-0.234845 -0.1008 -0.557264 
-0.234448 -0.0691476 -0.541365 
-0.209999 -0.0803166 -0.500138 
-0.151156 -0.132243 -0.524695 
-0.0980919 -0.140862 -0.440377 
-0.106684 -0.150464 -0.4868 
-0.0802123 -0.144958 -0.380135 
-0.0951878 -0.105727 -0.485517 
-0.0944332 -0.118464 -0.220713 
-0.0850744 -0.046919 -0.402814 
-0.0580565 -0.0143284 -0.45618 
-0.0775068 -0.0914874 -0.501018 
-0.0429229 -0.0673924 -0.489424 
-0.0170093 -0.0625838 -0.455478 
-0.0930952 0.15164 -0.540184 
0.045893 -0.0496889 -0.494519 
-0.0159899 -0.0445576 -0.549694 
0.13365 0.0479756 -0.603144 
-0.0211408 -0.0268185 -0.574619 
-0.0296788 -0.0872871 -0.589475 
-0.0264708 -0.0806154 -0.597209 
-0.0450207 -0.0897774 -0.611342 
-0.0524369 -0.122865 -0.619465 
-0.0602678 -0.152987 -0.632641 
-0.0659903 -0.142512 -0.640046 
-0.131251 -0.0651327 -0.710665 
-0.0956658 -0.128106 -0.676581 
-0.0940557 -0.16263 -0.687484 
-0.10788 -0.173621 -0.680531 
-0.0853373 -0.212648 -0.712824 
-0.0727092 -0.21066 -0.701609 
0.00770954 -0.136431 -0.793102 
0.00727748 -0.189577 -0.774349 
-0.0149159 -0.228847 -0.763006 
0.0382867 -0.23985 -0.76422 
0.0554178 -0.22351 -0.747974 
0.088435 -0.12296 -0.733428 
0.122113 -0.157571 -0.743618 
0.0551401 -0.220988 -0.673364 
0.0644197 -0.219866 -0.660505 
0.115483 -0.204065 -0.603783 
0.129801 -0.215162 -0.62723 
0.32342 -0.205786 -0.630923 
0.0729938 -0.263831 -0.608501 
0.0175304 -0.268399 -0.615761 
0.0515339 -0.273312 -0.600493 
0.117462 -0.351081 -0.712882 
0.0282882 -0.280757 -0.602602 
0.0256793 -0.288991 -0.582567 
0.0457643 -0.296418 -0.542678 
0.0208009 -0.31339 -0.594908 
0.0529405 -0.340821 -0.579402 
0.174942 -0.330532 -0.42544 
0.20578 -0.435488 -0.557735 
0.0120182 -0.339858 -0.597156 
0.006609 -0.391291 -0.617646 
0.0139356 -0.436274 -0.670109 
-0.024065 -0.394954 -0.649865 
-0.0315466 -0.379314 -0.630557 
-0.0325048 -0.410303 -0.66701 
-0.063776 -0.37521 -0.623677 
-0.107076 -0.353585 -0.620577 
-0.124658 -0.397021 -0.644367 
-0.1277 -0.353475 -0.58185 
-0.121201 -0.372717 -0.534753 
-0.099698 -0.357688 -0.504229 
-0.0925007 -0.322953 -0.438604 
-0.0906914 -0.367591 -0.452195 
-0.0791968 -0.368504 -0.453163 
-0.050685 -0.430892 -0.465629 
-0.0390486 -0.444667 -0.476377 
-0.0698079 -0.481495 -0.482164 
-0.0564929 -0.498434 -0.475669 
-0.0550644 -0.502351 -0.479535 
-0.0406268 -0.505661 -0.458826 
-0.0231708 -0.518688 -0.435847 
0.0799638 -0.595187 -0.372462 
-0.0219451 -0.558071 -0.372713 
-0.0671823 -0.50406 -0.398828 
-0.0733878 -0.484345 -0.365901 
-0.0283539 -0.441455 -0.317362 
-0.00218602 -0.444007 -0.271403 
-0.0953999 -0.533392 -0.248141 
-0.119452 -0.483567 -0.317223 
-0.166149 -0.46405 -0.331967 
-0.161881 -0.473179 -0.32808 
-0.170581 -0.569781 -0.373792 
-0.162401 -0.600733 -0.364383 
-0.226638 -0.588742 -0.471224 
-0.221952 -0.497892 -0.439824 
-0.225507 -0.479453 -0.435631 
-0.251171 -0.474507 -0.439103 
-0.290444 -0.470477 -0.424228 
-0.367685 -0.511314 -0.420972 
-0.40102 -0.507398 -0.294046 
-0.326396 -0.673254 -0.122554 
-0.314337 -0.711491 -0.13112 
-0.37892 -0.814957 -0.0544589 
-0.400158 -0.822979 -0.0722009 
-0.402206 -0.778661 -0.0999339 
-0.44009 -0.72769 -0.135102 
-0.422495 -0.740252 -0.165502 
-0.430596 -0.822121 -0.187363 
-0.485756 -0.778686 -0.121879 
-0.496406 -0.732273 -0.126722 
-0.499517 -0.749033 -0.145334 
-0.527342 -0.717543 -0.166539 
-0.512646 -0.726139 -0.172141 
-0.551159 -0.739891 -0.195189 
-0.666516 -0.84505 -0.257421 
-0.638068 -0.89181 -0.197183 
-0.59221 -1.00554 -0.144945 
-0.6082 -0.999188 -0.0752167 
-0.632418 -0.859052 -0.0680698 
-0.635474 -0.842472 -0.0834536 
-0.637924 -0.816409 -0.0953973 
-0.657135 -0.795991 -0.0920675 
-0.676628 -0.774842 -0.0977299 
-0.717115 -0.777702 -0.0868725 
-0.717711 -0.781269 -0.0855171 
-0.719708 -0.783916 -0.052512 
-0.691593 -0.769732 -0.0585213 
-0.669151 -0.743785 -0.0401951 
-0.662347 -0.65975 -0.0547949 
-0.662346 -0.670672 -0.055084 
-0.631416 -0.655158 -0.0375356 
-0.638216 -0.689207 -0.0128326 
-0.667237 -0.666042 0.01255 
-0.658298 -0.723164 0.0150498 
-0.578469 -0.765168 0.0535682 
-0.588464 -0.754485 0.0667193 
-0.559246 -0.768306 0.0949824 
-0.554422 -0.736109 0.0747371 
-0.533764 -0.697716 0.0648642 
-0.499126 -0.635175 0.0347965 
-0.456872 -0.572447 0.0359275 
-0.405565 -0.612318 0.011461 
-0.408512 -0.640858 0.0223724 
-0.408192 -0.652129 0.00987723 
-0.357294 -0.658691 -0.0114583 
-0.316385 -0.638678 -0.00836197 
-0.27333 -0.6272 0.0635439 
-0.277139 -0.709552 0.169856 
-0.28562 -0.683326 0.213212 
-0.301808 -0.600443 0.26476 
-0.296924 -0.56705 0.332958 
-0.347132 -0.699763 0.425229 
-0.356487 -0.614075 0.392958 
-0.384667 -0.573144 0.376722 
-0.445715 -0.631352 0.424872 
-0.415453 -0.542335 0.353113 
-0.456812 -0.4122 0.297578 
-0.40305 -0.442168 0.366533 
-0.399631 -0.43219 0.381084 
-0.391861 -0.424627 0.411599 
-0.416439 -0.443885 0.422122 
-0.492865 -0.410486 0.489586 
-0.449433 -0.396206 0.466931 
-0.407741 -0.406018 0.457641 
-0.443683 -0.390242 0.479156 
-0.416584 -0.277605 0.410009 
-0.414558 -0.328258 0.449967 
-0.425149 -0.252078 0.49713 
-0.383298 -0.310083 0.461233 
-0.308073 -0.283993 0.464358 
-0.331818 -0.346828 0.489658 
-0.334762 -0.371201 0.511308 
-0.32693 -0.364346 0.549772 
-0.298183 -0.346647 0.589253 
-0.385848 -0.361563 0.579412 
-0.386942 -0.393693 0.600315 
-0.383848 -0.460435 0.564055 
-0.384226 -0.497858 0.580551 
-0.359313 -0.483437 0.557681 
-0.342685 -0.470982 0.553435 
-0.327135 -0.477043 0.501376 
-0.268596 -0.473638 0.534808 
-0.265953 -0.47601 0.501971 
-0.263327 -0.465907 0.480907 
-0.262752 -0.488981 0.455689 
-0.273185 -0.487672 0.426967 
-0.274447 -0.528344 0.383189 
-0.266368 -0.523369 0.346058 
-0.230881 -0.477949 0.289238 
-0.192454 -0.392957 0.283933 
-0.184234 -0.381942 0.26368 
-0.161118 -0.367765 0.299812 
-0.110885 -0.403496 0.291027 
-0.113369 -0.396809 0.268565 
-0.0448259 -0.384365 0.226438 
0.0281466 -0.357713 0.103131 
-0.0146813 -0.357146 0.251986 
0.0316149 -0.341725 0.273074 
0.0209411 -0.328283 0.26127 
0.0257069 -0.300741 0.310931 
-0.053342 -0.272579 0.321434 
-0.0326499 -0.334162 0.330035 
0.00494201 -0.332127 0.408229 
0.00551166 -0.310419 0.458759 
-0.00950748 -0.382267 0.440221 
-0.0207256 -0.368531 0.373918 
-0.020912 -0.41382 0.395214 
-0.0409471 -0.429739 0.387998 
-0.0252311 -0.434276 0.386461 
-0.0251222 -0.490877 0.396934 
-0.0185719 -0.49289 0.359299 
-0.0196919 -0.525725 0.319808 
0.0163028 -0.532715 0.313711 
0.0254278 -0.566358 0.253311 
0.062104 -0.5151 0.307019 
0.0749076 -0.507132 0.380906 
0.0836845 -0.517744 0.373051 
0.102349 -0.479012 0.350311 
0.124117 -0.506619 0.467816 
0.120809 -0.510663 0.442253 
0.156991 -0.499589 0.411959 
0.185204 -0.465793 0.40779 
0.242019 -0.408354 0.419027 
0.20969 -0.419379 0.380787 
0.234066 -0.454804 0.281777 
0.220069 -0.479948 0.287707 
0.277306 -0.519189 0.182657 
0.200954 -0.619206 0.291724 
0.172763 -0.591182 0.390486 
0.245031 -0.603884 0.421944 
0.301142 -0.579665 0.429646 
0.342947 -0.582714 0.390015 
0.3939 -0.527299 0.433213 
0.597361 -0.413908 0.376748 
0.630062 -0.3597 0.348425 
0.618232 -0.347804 0.32016 
0.632565 -0.28417 0.342161 
0.638736 -0.237141 0.335337 
0.622812 -0.194349 0.33318 
0.617169 -0.165381 0.333323 
0.618859 -0.1085 0.320925 
0.632727 -0.0560127 0.282899 
0.549539 0.00147835 0.255349 
0.498601 0.0268632 0.31819 
0.47387 0.0341003 0.332962 
0.448944 0.0231152 0.327991 
0.431254 0.0253597 0.371735 
0.44733 0.0102426 0.390614 
0.453633 0.0103378 0.420695 
0.46205 0.0191194 0.467231 
0.467557 -0.00282682 0.483299 
0.468398 -0.0473909 0.520418 
0.567586 -0.0189377 0.568138 
0.55722 0.051202 0.531696 
0.577067 0.0748046 0.522659 
0.565334 0.141904 0.535666 
0.582291 0.156594 0.530911 
0.53525 0.217513 0.605135 
0.522394 0.256264 0.634865 
0.461408 0.238965 0.71165 
0.347945 0.317971 0.716929 
0.410218 0.340264 0.622828 
0.396908 0.272449 0.56704 
0.370217 0.245048 0.55863 
0.392085 0.305498 0.516608 
0.400465 0.347717 0.519239 
0.390339 0.360377 0.477025 
0.464288 0.335913 0.521842 
0.515152 0.336719 0.500993 
0.51391 0.335247 0.458221 
0.55795 0.348329 0.44574 
0.562701 0.362307 0.449644 
0.554179 0.356494 0.486902 
0.579423 0.390666 0.48958 
0.573357 0.460739 0.473917 
0.54957 0.442959 0.540081 
0.590167 0.428453 0.568739 
0.541313 0.45608 0.629584 
0.644079 0.45752 0.59229 
0.651711 0.483438 0.603668 
0.679972 0.414924 0.619106 
0.680105 0.404442 0.632741 
0.70556 0.349526 0.622546 
0.682133 0.330556 0.640357 
0.711649 0.31656 0.622399 
0.745204 0.297829 0.676746 
0.771054 0.324253 0.616234 
0.759894 0.310872 0.569055 
0.797993 0.321484 0.560245 
0.819802 0.322076 0.552654 
0.902311 0.422446 0.77725 
0.919652 0.415505 0.632753 
0.899104 0.443053 0.521249 
0.914074 0.426234 0.507072 
1.02292 0.395889 0.577192 
0.982427 0.38375 0.490171 
0.982114 0.330084 0.422417 
1.00908 0.284915 0.43004 
1.06892 0.251081 0.432469 
1.0794 0.28079 0.367371 
0.990018 0.292868 0.273734 
0.991359 0.309259 0.269094 
0.96445 0.365009 0.240155 
1.02172 0.38455 0.203443 
1.03398 0.394465 0.175127 
1.09165 0.446308 0.186431 
1.21927 0.37279 0.253569 
1.12002 0.487111 0.242819 
1.11849 0.5361 0.271484 
1.13094 0.555693 0.338029 
1.05784 0.559704 0.271906 
1.05539 0.558883 0.239465 
0.992786 0.565733 0.208495 
0.963364 0.570562 0.212981 
0.986556 0.587207 0.174466 
0.959955 0.608941 0.15803 
0.979065 0.620786 0.129492 
1.02122 0.640103 0.0864163 
1.02476 0.637942 0.0891052 
1.01173 0.688765 0.0901114 
1.07855 0.733144 0.0503054 
1.13641 0.847056 0.0145677 
1.10599 0.681217 0.0339704 
1.18462 0.668896 0.0454636 
1.30426 0.592615 0.0657661 
1.26871 0.629586 0.0274751 
1.12958 0.636563 0.00321076 
1.11511 0.606212 -0.0129305 
1.11638 0.581302 -0.0204721 
1.17186 0.498964 -0.0392094 
1.17549 0.517277 -0.0682529 
1.1622 0.60368 -0.13006 
1.10979 0.64458 -0.143908 
1.07743 0.706146 -0.18922 
1.0294 0.624997 -0.143704 
0.996683 0.543081 -0.152462 
0.994448 0.507146 -0.127379 
0.974102 0.514791 -0.111748 
0.953784 0.527354 -0.137421 
0.959343 0.527358 -0.168694 
0.981685 0.497322 -0.317013 
0.870662 0.637339 -0.145569 
0.883806 0.596287 -0.127134 
0.849657 0.596469 -0.105338 
0.794419 0.617518 -0.0624138 
0.809904 0.588737 -0.0788129 
0.804399 0.538767 -0.0695146 
0.773464 0.485116 -0.0897165 
0.758757 0.432602 -0.0794339 
0.745146 0.406749 -0.0320985 
0.77254 0.369114 -0.0647698 
0.777476 0.39211 -0.10957 
0.781582 0.380385 -0.113843 
0.776668 0.401536 -0.101136 
0.772723 0.273267 -0.146152 
0.83582 0.211919 -0.229242 
0.775356 0.357196 -0.274301 
0.760909 0.412223 -0.301834 
0.744753 0.417347 -0.272481 
0.702001 0.456082 -0.261061 
0.707559 0.425953 -0.253731 
0.69532 0.40605 -0.268333 
0.680835 0.392932 -0.258364 
0.647624 0.390271 -0.245629 
0.624224 0.369567 -0.252497 
0.573611 0.386768 -0.221598 
0.603757 0.365731 -0.224603 
0.590656 0.327711 -0.239512 
0.58201 0.370737 -0.15274 
0.564613 0.403844 -0.115985 
0.604633 0.461932 -0.170679 
0.495918 0.545085 -0.130921 
0.589956 0.511238 -0.194473 
0.644001 0.51975 -0.222959 
