135.418	423.017	147.046
107.775	416.094	125.424
84.9418	423.645	111.596
72.4656	422.695	96.5287
52.7778	399.381	104.563
43.6378	374.415	120.802
31.906	353.598	135.298
14.3408	333.743	154.943
28.6248	311.621	151.036
51.8969	292.646	129.244
75.2512	271.826	108.353
99.3854	281.269	87.2646
96.6476	310.782	67.849
85.3562	320.285	39.9545
103.19	307.951	18.5598
102.656	297.422	11.5012
85.5939	278.125	18.4058
70.0892	259.627	20.9896
59.5875	243.175	24.2231
65.2687	240.21	53.4386
44.4164	249.147	74.0272
26.0035	257.116	60.6366
15.866	282.605	37.5736
18.452	312.419	33.8802
40.8125	313.855	48.66
53.2509	313.79	76.2276
44.3231	330.022	106.045
32.5154	341.297	102.633
22.2768	365.607	82.7794
5.35489	401.207	79.9877
10.9654	405.701	71.0347
36.0085	404.466	57.8533
69.6198	415.574	53.3179
109.247	415.532	52.4589
129.327	411.012	31.7872
135.671	400.972	31.7558
123.419	395.596	58.3261
122.244	383.275	67.7098
145.109	364.077	86.2239
150.829	364.632	120.717
152.628	383.674	120.785
140.351	379.989	108.527
131.681	361.635	132.318
142.997	338.89	143.341
162.18	323.15	150.652
191.123	315.093	157.912
203.629	313.22	132.29
195.125	316.582	95.5408
203.944	319.191	64.7519
210.862	344.643	56.7122
191.779	348.379	67.9305
164.653	321.968	70.3255
134.612	298.852	57.9153
121.171	270.668	60.6911
137.966	254.761	83.6956
170.211	248.862	87.9002
186.964	261.376	83.8213
188.629	273.882	106.78
204.2	274.349	113.171
218.26	301.816	101.911
231.989	307.218	104.709
246.942	308.596	94.5176
248.254	327.204	62.707
256.217	313.708	51.5251
280.468	293.92	49.0516
292.706	309.882	38.1732
286.943	348.17	31.5174
304.161	364.355	30.3705
333.463	360.432	19.0353
351.146	349.865	18.1386
341.105	338.171	24.8185
329.096	335.72	34.5714
324.043	318.763	53.8408
323.002	301.707	71.4991
347.497	301.021	76.0226
346.854	297.241	50.9349
332.229	274.239	40.6164
325.386	236.457	46.4197
325.319	235.076	58.6875
315.037	252.359	75.1536
305.552	267.347	94.5998
315.969	261.778	108.123
335.295	243.273	101.1
370.357	239.153	83.5648
406.288	235.943	68.0738
409.356	230.577	50.3465
390.014	205.28	48.3431
370.51	175.074	58.4809
370.669	160.914	72.5725
391.812	150.852	67.5053
407.339	125.323	48.3397
403.581	114.194	59.6183
371.786	116.741	80.8231
336.608	121.627	83.1844
325.728	133.897	58.8852
348.931	133.817	30.3116
371.638	147.067	28.6288
383.899	154.745	20.5869
375.849	158.926	5.87187
346.042	165.22	17.9796
337.028	175.92	34.0279
331.891	205.439	27.8493
303.248	226.872	13.9954
269.348	246.65	16.9502
243.171	241.487	12.5666
213.885	228.886	2.07075
209.633	242.84	5.60596
218.656	244.773	26.4185
226.701	225.487	52.3721
239.369	203.017	46.9691
226.571	173.325	32.2977
212.902	169.891	47.4039
194.116	188.057	50.9996
168.404	208.928	33.0917
148.945	213.464	39.351
126.816	215.441	60.4884
114.996	236.368	87.0436
106.485	226.221	102.715
105.249	204.628	81.8807
112.166	182.834	73.0486
124.223	161.474	96.9338
138.992	172.593	125.148
123.864	179.569	131.187
88.8805	179.142	128.206
74.8534	182.925	151.895
94.8266	167.577	173.76
111.65	155.676	156.38
111.31	149.11	117.528
106.131	123.799	93.1162
107.133	110.026	106.294
93.439	118.517	131.434
91.0973	115.079	147.209
111.886	120.766	171.445
101.069	120.641	188.292
78.9116	96.7121	205.33
81.7093	98.2785	232.387
110.873	115.358	244.657
128.396	111.776	263.223
115.419	117.577	291.139
84.8411	132.53	297.066
79.0272	120.195	298.268
92.299	87.8832	296.084
103.461	66.1044	273.054
125.999	66.5093	240.687
140.939	59.7458	240.931
133.464	46.439	273.639
123.925	26.0733	299.473
131.996	27.4742	312.904
131.306	64.9234	318.446
105.917	81.3391	327.196
95.5271	93.8338	344.631
101.489	122.521	341.01
98.7653	140.84	346.286
80.6103	137.353	370.552
43.6142	124.965	378.315
38.1819	113.43	368.717
41.8407	92.5308	366.393
37.2217	74.5406	395.416
37.846	53.8012	404.118
43.199	33.0293	410.695
67.2252	41.021	419.42
74.2256	34.7851	407.649
50.4433	12.7552	393.953
18.5604	16.9321	373.204
8.13153	16.3545	344.659
13.5723	8.15246	307.06
29.3264	3.20355	299.62
43.234	17.3822	317.403
47.3679	44.7316	340.269
71.9928	55.8973	359.735
93.6861	52.4551	342.79
87.583	27.6438	323.602
73.0843	25.4298	313.13
63.2056	58.9142	293.888
43.2933	75.5425	273.314
26.3828	70.5951	281.465
10.4884	64.5468	288.395
2.50494	79.1549	284.288
29.3677	97.3643	288.491
52.3705	108.72	267.022
50.485	104.331	236.705
44.4058	109.551	228.885
41.8686	118.354	217.287
27.5696	115.968	186.893
25.2469	140.986	170.108
35.576	171.807	152.37
44.0638	193.857	154.252
46.6221	221.162	171.866
41.5061	224.435	185.37
34.4339	191.801	189.791
10.9122	185.158	175.322
1.19045	213.206	175.02
19.0556	236.877	166.272
18.6906	256.592	158.821
16.9941	263.332	182.032
31.1228	266.642	180.948
33.6224	292.244	177.448
40.4952	321.634	201.891
64.9366	339.595	224.229
73.2007	353.077	250.651
81.7041	363.994	254.921
109.8	348.793	242.452
120.867	335.043	221.323
114.235	325.467	186.809
123.268	320.971	182.681
150.459	334.931	207.919
174.885	356.951	222.946
185.82	362.114	206.334
200.806	341.819	183.665
221.803	312.61	179.529
230.508	301.465	163.387
235.06	290.486	140.262
219.078	262.63	142.515
212.955	236.893	148.807
237.109	209.415	137.492
237.702	185.46	121.46
220.504	158.396	101.094
225.936	134.006	100.734
228.031	113.382	130.607
224.477	84.2588	143.574
231.867	69.3712	121.482
237.132	92.0492	94.0601
224.768	98.3406	93.934
204.751	86.912	83.0825
188.644	85.7994	46.7837
198.482	86.4525	27.9437
228.226	79.9773	41.424
250.855	77.9232	42.5106
265.291	66.8025	19.4234
277.303	42.4784	26.1388
301.908	49.5157	44.8893
315.958	55.4582	66.2615
302.797	35.4593	75.6158
309.479	24.526	70.428
347.911	30.2878	79.3141
379.794	44.9451	73.0928
381.167	71.4348	60.9244
352.387	77.3576	60.2575
345.156	66.0546	77.9108
371.731	68.866	105.633
392.659	54.4617	123.097
396.204	30.0203	149.177
378.447	24.6543	157.739
366.593	34.1204	164.604
353.769	34.3198	184.13
325.136	20.9779	202.572
298.726	16.5804	231.047
285.315	14.4375	223.636
293.964	23.9838	189.433
285.92	22.3653	173.097
268.021	27.2819	165.379
266.047	27.6231	151.86
259.088	16.1937	127.592
253.101	17.6508	91.8881
243.37	18.5116	58.4454
229.77	12.9915	60.0535
212.685	12.6408	72.0054
196.352	33.165	50.0738
184.754	55.2159	42.4942
157.631	66.1852	64.5227
143.482	52.179	60.2789
133.891	40.442	27.9394
112.614	26.9934	22.5164
87.8532	26.3941	36.0544
85.8726	44.4928	52.9655
111.347	55.6244	52.8508
122.438	71.5387	55.7515
103.958	72.7539	78.7697
84.675	78.212	98.4408
66.5759	90.6332	100.432
57.9712	70.5269	85.5756
60.1332	62.9459	98.7283
52.3297	82.355	132.608
32.9856	83.5804	142.276
18.4093	61.5724	147.544
21.3089	43.5261	180.7
38.1664	29.199	195.645
67.1334	31.6777	183.537
89.7747	61.7714	171.05
90.8174	73.9927	183.368
97.3687	59.2309	192.966
109.112	54.4448	166.217
124.911	58.2876	142.368
138.896	42.8271	123.967
123.012	45.9481	111.953
126.287	76.277	108.018
148.024	84.3658	120.225
150.28	95.5348	147.626
156.808	107.249	142.309
176.03	108.722	144.823
172.424	122.157	177.793
170.72	141.872	180.348
179.688	163.133	185.57
185.538	154.817	194.887
189.466	118.038	188.9
195.917	96.0663	209.621
210.809	99.7275	209.7
209.942	113.943	208.362
191.221	124.963	241.245
196.364	119.423	249.697
212.496	130.125	248.264
215.136	160.505	238.505
237.061	177.081	218.609
273.277	186.467	205.681
304.838	176.829	194.822
317.346	145.596	183.361
304.334	114.444	164.43
294.225	113.753	140.208
279.89	137.296	132.383
272.264	163.761	130.57
273.391	198.544	119.683
257.491	232.73	126.638
241.518	248.766	116.616
233.937	247.717	77.8906
248.668	243.245	70.2414
278.53	236.746	69.0368
294.597	232.79	75.4882
288.195	229.94	113.491
276.227	234.249	149.957
281.615	250.968	183.127
297.973	277.76	190.084
313.318	277.763	188.996
338.272	250.126	193.511
351.287	223.65	202.97
346.625	197.616	231.809
342.156	206.415	243.974
336.724	232.935	257.436
329.088	224.067	285.863
314.992	211.807	278.125
314.084	197.585	263.485
335.774	166.605	272.569
339.26	137.67	282.964
324.713	140.956	289.196
339.141	158.094	298.983
365.348	146.414	291.109
376.499	152.309	262.635
366.295	165.173	235.255
334.624	155.522	217.355
331.198	145.199	201.161
331.54	128.815	190.996
306.553	117.043	210.826
298.257	98.9844	230.485
292.032	83.2131	250.896
275.052	69.804	263.642
271.108	55.0037	239.372
281.02	55.5906	200.89
301.318	64.2485	189.463
320.794	80.0869	178.445
343.119	81.8134	167.833
374.211	89.668	166.149
388.851	119.259	164.357
378.379	124.222	163.411
368.913	111.072	174.236
352.606	108.72	200.521
349.91	118.138	207.047
380.159	119.145	216.11
391.039	104.493	244.449
372.67	112.477	257.92
363.282	106.541	244.614
355.071	75.1139	232.97
357.016	50.045	233.292
375.206	27.1542	253.991
357.643	17.2786	270.996
346.6	22.3435	289.461
349.544	44.8147	306.611
362.281	58.8253	311.243
399.222	47.9412	310.653
424.703	53.0805	320.093
422.068	46.7028	333.345
411.54	27.7331	351.399
392.446	24.0503	363.746
377.34	40.7924	350.105
379.206	78.4242	337.54
382.996	109.03	315.719
389.839	129.4	318.365
390.819	128.674	354.003
408.61	111.713	370.166
408.088	97.7419	369.058
373.927	85.4108	380.996
350.951	72.436	375.494
327.236	54.8656	352.6
311.23	62.0739	337.578
299.195	81.5562	312.476
298.57	95.5925	285.624
291.878	112.866	267.619
280.524	113.236	278.824
285.828	102.604	316.121
293.838	98.8143	352.647
288.835	90.1236	361.623
262.074	69.2234	340.917
253.28	47.7661	344.708
257.214	34.0357	340.794
258.824	33.5034	301.031
253.872	19.9193	292.47
236.517	13.1326	318.07
223.144	26.8358	351.521
201.324	33.0456	374.566
177.887	31.9424	358.917
186.742	25.3415	324.617
186.809	35.3676	315.25
178.774	51.0719	301.235
199.507	50.426	270.134
233.077	43.8442	249.891
242.695	41.118	259.617
226.434	54.4466	292.098
211.935	74.8299	323.035
201.385	71.9886	355.194
178.523	67.3499	367.486
155.387	88.0452	378.432
168.44	93.1296	388.887
191.138	103.993	388.202
196.029	142.808	387.329
199.718	151.14	367.452
219.141	127.687	353.411
231.886	98.944	344.709
241.104	93.3241	322.564
256.755	118.14	325.192
256.834	125.704	357.912
241.046	134.565	380.611
246.683	156.241	379.108
273.396	155.957	390.303
285.214	139.489	389.775
300.46	131.716	356.701
301.46	140.935	325.899
287.573	168.075	310.449
267.624	186.215	299.754
260.973	196.024	276.944
278.969	189.36	268.188
275.35	164.586	287.261
249.079	159.906	315.413
233.127	181.031	334.024
227.444	214.642	352.648
209.567	218.681	354.538
202.128	227.101	339.711
197.404	260.881	344.327
204.334	285.979	352.562
215.359	298.25	371.3
207.035	285.058	402.881
211.647	251.554	410.682
237.54	228.356	403.027
270.895	219.865	413.915
301.882	208.702	419.898
317.963	187.167	426.631
320.672	178.151	421.936
307.427	186.685	392.422
279.491	189.261	398.497
283.916	197.104	406.414
300.121	213.916	379.455
300.14	241.163	365.913
314.289	269.719	360.671
328.426	298.571	354.028
319.772	309.81	341.283
306.765	303.78	305.845
306.278	288.685	295.193
298.35	262.038	290.926
266.617	255.639	281.931
245.204	251.664	267.058
230.642	260.171	251.547
208.516	290.343	263.992
211.015	296.525	286.544
242.779	290.3	297.752
272.45	310.036	293.195
301.421	332.568	287.669
306.951	351.321	278.364
283.465	368.965	288.949
262.238	386.925	296.479
261.54	390.013	273.941
272.971	370.354	242.847
280.842	348.974	210.92
278.059	354.063	197.743
250.66	380.77	200.304
234.704	378.482	218.17
238.763	386.746	235.598
257.688	406.365	225.576
288.863	419.764	213.231
313.709	418.879	202.857
340.741	397.167	201.702
375.338	391.487	218.792
407.426	385.721	239.718
406.472	370.263	261.701
371.491	361.254	268.621
352.776	366.278	246.397
347.232	385.372	240.819
341.639	393.758	273.714
356.776	375.107	295.94
374.193	342.214	303.882
377.786	312.092	292.323
377.807	281.329	272.251
394.512	264.944	258.88
407.905	259.587	266.571
413.567	239.89	270.356
415.257	221.159	273.305
404.412	223.832	306.902
393.918	252.805	322.282
402.083	277.306	332.168
416.017	265.137	351.869
395.397	242.056	363.239
377.223	256.736	369.633
386.835	264	386.153
406.579	267.98	402.081
398.764	286.565	398.803
389.121	301.093	379.956
401.561	329.452	355.69
404.741	354.047	362.217
390.189	364.443	366.697
380.068	385.602	350.571
369.312	398.443	359.302
343.696	383.086	385.158
351.63	379.293	405.865
350.409	386.229	415.63
324.238	405.684	426.144
310.732	420.836	414.401
304.403	421.609	376.06
293.681	408.931	360.778
276.152	378.453	353.049
281.614	349.981	349.281
274.275	340.756	353.648
236.496	352.018	347.442
204.54	358.932	360.299
179.365	356.818	391.155
184.927	358.05	415.893
188.055	372.461	416.031
156.017	384.02	397.863
142.277	399.577	375.528
137.859	415.748	344.462
135.562	400.132	317.737
151.099	368.514	299.323
172.32	370.071	291.088
199.796	395.453	284.57
221.495	385.917	272.931
228.067	349.62	259.78
218.56	315.683	244.926
190.252	291.396	242.621
164.757	280.724	227.16
157.611	268.074	191.365
151.717	241.555	183.182
148.783	207.916	182.302
143.583	187.87	190.107
133.797	166.148	200.922
121.576	162.328	201.812
91.1403	174.797	212.719
75.6254	180.971	233.254
86.2697	171.298	245.748
111.266	158.653	245.878
148.983	158.93	252.581
181.262	168.791	254.777
187.735	201.255	263.055
177.176	201.44	280.102
160.678	194.557	277.85
133.608	200.035	278.942
125.819	211.226	301.756
121.364	238.61	299.731
94.1383	244.63	277.029
88.214	232.943	250.224
93.3273	242.616	245.114
82.3896	266.017	238.516
82.706	290.231	229.826
75.8058	292.316	241.91
47.6497	265.85	251.219
42.3373	269.568	265.504
65.4692	283.287	288.346
77.4534	301.135	306.592
89.0272	311.582	322.213
88.1621	293.032	345.118
72.824	263.711	355.455
53.6355	240.976	363.648
47.4766	233.113	356.899
62.7393	223.733	322.246
58.671	236.624	296.36
39.049	253.297	305.718
10.2421	244.189	328.175
0.835925	229.517	352.097
6.3126	204.03	365.183
11.7014	169.417	350.083
27.2962	150.153	357.202
48.4482	150.723	389.511
65.8603	168.127	389.311
87.8389	190.015	371.406
89.5577	201.905	380.158
87.5316	213.824	403.358
113.632	225.973	399.162
134.662	246.827	386.172
131.463	279.978	393.511
108.933	286.745	383.75
105.074	262.754	379.877
92.2642	243.522	389.073
57.6358	252.895	387.931
44.7715	285.919	387.504
47.4467	321.066	399.548
52.524	329.487	394.222
68.3151	336.248	385.437
87.2607	352.749	376.655
86.9758	373.916	357.408
98.1865	396.29	352.755
112.002	410.589	365.454
113.821	407.029	394.336
104.291	383.262	411.235
68.9802	365.793	414.903
34.6256	359.32	402.037
19.7707	376.311	377.858
10.3601	375.204	366.329
0.786275	340.275	357.761
2.86179	325.349	328.998
17.0656	317.652	298.277
37.4871	318.301	302.04
40.6285	348.092	310.662
16.8126	370.712	306.678
5.14481	370.176	290.979
8.12039	375.303	256.362
1.91924	374.909	222.391
2.03046	369.026	185.723
21.272	382.33	168.01
47.9799	373.501	170.176
71.7448	356.228	157.138
99.4379	342.188	148.118
108.633	331.248	133.226
99.971	320.776	127.126
83.7224	323.084	139.3
80.695	329.362	153.363
89.2525	338.108	174.841
108.007	363.213	185.89
143.234	372.538	180.138
173.465	387.588	178.548
187.743	418.998	183.134
185.433	421.408	169.04
164.18	412.44	161.494
