-0.774424 -0.460152 0.180621 
-0.799976 -0.438264 0.171171 
-0.964644 -0.539488 0.273361 
-0.866824 -0.370939 0.143392 
-0.857328 -0.349617 0.192702 
-0.975217 -0.445906 0.318045 
-0.834446 -0.300621 0.240359 
-0.831887 -0.279749 0.262177 
-0.850045 -0.293017 0.315851 
-0.815718 -0.262179 0.318866 
-0.789503 -0.339566 0.362302 
-0.889646 -0.455073 0.509996 
-0.759988 -0.375993 0.474253 
-0.730476 -0.397991 0.494361 
-0.700954 -0.386702 0.495396 
-0.76446 -0.419043 0.567956 
-0.692918 -0.382316 0.552372 
-0.762346 -0.372912 0.594919 
-0.706356 -0.334486 0.602232 
-0.76197 -0.360739 0.639145 
-0.667589 -0.32443 0.612109 
-0.67513 -0.31397 0.648563 
-0.664479 -0.285165 0.671946 
-0.684468 -0.307128 0.711129 
-0.717645 -0.355343 0.748292 
-0.701299 -0.391213 0.752288 
-0.609932 -0.320123 0.732243 
-0.673274 -0.381732 0.787982 
nan nan nan
-0.721702 -0.487383 0.81268 
-0.532397 -0.440369 0.80178 
-0.513527 -0.426271 0.815726 
-0.611309 -0.514005 0.787084 
-0.507719 -0.505665 0.771283 
-0.472082 -0.528386 0.750915 
-0.542977 -0.596678 0.756069 
-0.636613 -0.64795 0.756189 
-0.512794 -0.580894 0.728845 
-0.669501 -0.665458 0.712685 
-0.511254 -0.545245 0.616919 
-0.538404 -0.565872 0.596139 
nan nan nan
-0.56015 -0.612256 0.596787 
-0.503507 -0.553096 0.578053 
-0.560852 -0.618898 0.599945 
-0.483439 -0.602365 0.593677 
nan nan nan
-0.427194 -0.634407 0.611824 
-0.45429 -0.855065 0.652085 
-0.314461 -0.629409 0.623427 
-0.264577 -0.645785 0.616036 
-0.225784 -0.640582 0.575982 
-0.187225 -0.692427 0.521341 
-0.162784 -0.781771 0.556205 
-0.181244 -0.688444 0.445912 
-0.148675 -0.755234 0.471042 
-0.0909535 -0.815002 0.505251 
-0.095509 -0.786344 0.390953 
-0.032984 -0.836782 0.497083 
-0.00323022 -0.805608 0.432392 
0.0273186 -0.793323 0.417171 
0.0420042 -0.773078 0.386973 
0.0847203 -0.751644 0.405338 
0.118569 -0.700541 0.392065 
0.160254 -0.714771 0.39996 
0.155284 -0.717245 0.380296 
0.105788 -0.610201 0.352836 
0.114408 -0.593963 0.402017 
0.231637 -0.749786 0.539805 
0.145407 -0.567541 0.466944 
0.155785 -0.578161 0.499284 
0.187114 -0.610299 0.553919 
0.177005 -0.552815 0.555962 
0.19898 -0.566476 0.636918 
0.175298 -0.541615 0.650839 
0.149591 -0.509126 0.631007 
0.197093 -0.566679 0.719906 
0.25895 -0.568898 0.708849 
0.264108 -0.493293 0.676876 
0.35208 -0.586874 0.776674 
0.355039 -0.489032 0.664675 
0.409552 -0.446289 0.683514 
0.435334 -0.392346 0.643619 
0.439461 -0.372535 0.704062 
0.436342 -0.331502 0.730493 
0.441626 -0.292044 0.750581 
0.509001 -0.288043 0.85582 
0.38064 -0.193576 0.629742 
0.354519 -0.187161 0.659184 
0.33082 -0.169464 0.703096 
0.301418 -0.127726 0.692309 
nan nan nan
0.338493 -0.0852078 0.741385 
0.438871 -0.121279 0.959471 
0.292479 -0.0475166 0.754637 
0.315445 -0.0818404 0.874116 
0.225686 -0.0562994 0.78541 
0.226946 -0.0878895 0.81437 
0.241144 -0.156181 0.899037 
0.18258 -0.132055 0.809163 
0.191804 -0.172929 0.849292 
0.240209 -0.238205 0.874425 
0.277215 -0.29525 0.895939 
0.263302 -0.350763 0.81229 
0.306074 -0.444189 1.00361 
0.254611 -0.37763 0.851347 
0.230255 -0.345982 0.794354 
0.201271 -0.34788 0.816751 
0.16401 -0.306935 0.72631 
0.104528 -0.375868 0.839572 
0.0765619 -0.327531 0.753043 
0.0540935 -0.290074 0.709976 
0.0346444 -0.290854 0.665709 
-0.00712916 -0.274944 0.69915 
-0.113695 -0.262189 0.871101 
-0.158822 -0.239318 0.827268 
-0.160834 -0.222708 0.548056 
-0.199586 -0.263759 0.665705 
-0.212279 -0.307154 0.767512 
nan nan nan
-0.277658 -0.317035 0.654928 
-0.290671 -0.335602 0.654699 
-0.358865 -0.309681 0.533497 
-0.396879 -0.305175 0.579528 
nan nan nan
-0.396708 -0.254452 0.638369 
-0.409942 -0.174663 0.498099 
-0.429181 -0.113385 0.525198 
nan nan nan
-0.434476 -0.0733553 0.679611 
-0.471653 -0.0355413 0.613823 
-0.478721 -0.0224469 0.81559 
-0.461796 0.0155941 0.566477 
-0.417524 0.016549 0.797905 
-0.384306 0.0495565 0.57947 
-0.401694 0.117509 0.606406 
nan nan nan
-0.454252 0.250554 0.529668 
nan nan nan
-0.460414 0.387276 0.460021 
-0.44707 0.417807 0.435995 
-0.391418 0.441375 0.435876 
-0.332643 0.518209 0.605428 
-0.343229 0.495897 0.503942 
-0.340768 0.497671 0.493007 
-0.347087 0.466242 0.402491 
-0.31702 0.502354 0.39098 
-0.250817 0.587503 0.596042 
-0.303571 0.566331 0.346774 
-0.292183 0.571436 0.304806 
-0.292728 0.574009 0.258011 
-0.261894 0.567662 0.220185 
-0.27425 0.596386 0.1601 
-0.253236 0.613932 0.131385 
-0.26395 0.637244 0.0811513 
-0.270976 0.623848 0.0608614 
-0.291186 0.686218 0.029949 
-0.275145 0.679825 0.0114736 
-0.258493 0.70836 -0.01153 
-0.282884 0.736719 -0.042101 
-0.324234 0.785534 -0.0924554 
-0.337936 0.898939 -0.164795 
-0.366753 0.895015 -0.167318 
-0.420844 0.794674 -0.130581 
-0.439647 0.770066 -0.133205 
-0.472631 0.699721 -0.157499 
-0.506119 0.695281 -0.170825 
-0.576471 0.832316 -0.193619 
-0.586137 0.606282 -0.225447 
-0.5966 0.671978 -0.20573 
-0.647432 0.708263 -0.208545 
-0.694814 0.843755 -0.193485 
-0.689193 0.633761 -0.177447 
-0.683638 0.640545 -0.125652 
-0.701818 0.666654 -0.0522574 
-0.691789 0.600941 -0.0055155 
-0.686532 0.586226 0.0421848 
-0.738122 0.57511 0.07349 
-0.880233 0.596738 0.0724547 
-0.75953 0.431548 0.0435574 
-0.793631 0.294901 -0.0444449 
-0.752682 0.287815 -0.019717 
-0.701595 0.294652 0.0035907 
-0.641197 0.269568 0.00984578 
-0.577052 0.2374 0.0639748 
-0.502266 0.228712 -0.0040173 
-0.421587 0.240616 -0.0273396 
-0.356064 0.222566 -0.0578837 
-0.235141 0.263373 -0.213815 
-0.260569 0.14759 0.02156 
-0.255841 0.12043 0.0537227 
-0.223441 0.125738 0.00982821 
-0.139421 0.204364 -0.175751 
-0.108549 0.189594 -0.170307 
-0.118729 0.0809606 -0.0690005 
-0.0886481 0.0246474 -0.013078 
-0.0545246 -0.00689168 0.0331975 
-0.00556157 0.0635864 -0.0626862 
0.00805192 0.04232 -0.0337774 
0.020151 0.0690663 -0.0122004 
0.023475 0.133082 0.0516455 
0.0718246 0.13976 0.0980689 
0.130622 0.134411 0.122264 
0.174144 0.10402 0.153625 
0.249589 0.0424538 0.142631 
0.325533 -0.047631 0.124144 
0.371878 -0.067346 0.146117 
nan nan nan
0.462707 -0.116789 0.176369 
0.490671 -0.165848 0.215768 
0.548564 -0.111357 0.233334 
0.558721 -0.144239 0.334427 
0.574557 -0.1026 0.374467 
0.5497 -0.0023905 0.428358 
0.540115 0.0212908 0.447249 
0.505557 0.0741553 0.512279 
0.493669 0.10568 0.580788 
0.48969 0.170044 0.613532 
0.488407 0.221163 0.591611 
0.491862 0.249867 0.601957 
0.482853 0.2784 0.651771 
0.64862 0.461439 0.762299 
0.497321 0.296422 0.732323 
0.467735 0.284743 0.748283 
0.481087 0.345958 0.768836 
0.412706 0.35611 0.75186 
0.504126 0.425555 0.733896 
0.485321 0.444066 0.715911 
0.477194 0.44762 0.705679 
0.366641 0.394026 0.685982 
0.392618 0.472983 0.708596 
0.453755 0.601919 0.740585 
0.353987 0.515644 0.702967 
0.280018 0.425199 0.649344 
0.440196 0.610065 0.69474 
0.345847 0.502115 0.640241 
0.332811 0.427494 0.554489 
0.357268 0.509515 0.519701 
0.406383 0.667012 0.569678 
0.319997 0.524426 0.472646 
0.37884 0.69483 0.557425 
0.30257 0.520962 0.445017 
0.243818 0.495929 0.393438 
0.205892 0.476821 0.358223 
0.204873 0.585549 0.4152 
0.253516 0.755987 0.528878 
0.130877 0.651845 0.384461 
0.0877234 0.764267 0.39417 
0.0254331 0.792674 0.375641 
-0.0420416 0.878551 0.369196 
-0.122245 0.89607 0.366474 
-0.153159 1.00353 0.392423 
-0.230254 0.91951 0.407912 
-0.327299 1.12115 0.371652 
-0.406531 0.906584 0.435128 
-0.482073 0.985647 0.359895 
-0.514832 0.886449 0.437718 
-0.559585 0.921852 0.379463 
-0.608847 0.910704 0.385338 
-0.661272 0.944384 0.337243 
-0.693044 0.784533 0.399986 
-0.717057 1.00199 0.290327 
-0.742328 0.917704 0.318932 
-0.741024 1.02844 0.267142 
-0.715132 0.960147 0.320698 
-0.708583 0.909183 0.382477 
-0.726989 1.07809 0.255855 
-0.637754 0.93254 0.346071 
-0.624963 0.951824 0.293901 
-0.591126 0.899192 0.295347 
-0.572721 0.895861 0.254975 
-0.608037 0.993665 0.190088 
-0.596102 0.864686 0.211018 
-0.591628 0.888886 0.166864 
-0.578452 0.9692 0.114198 
-0.534864 0.877771 0.152525 
-0.510824 0.910998 0.137367 
-0.476195 0.959336 0.134002 
-0.446581 0.947868 0.167549 
-0.425176 1.05651 0.136006 
-0.391469 1.14715 0.0960011 
-0.348085 0.980122 0.148398 
-0.326307 0.956238 0.168485 
-0.330301 0.967309 0.168647 
-0.303761 1.01494 0.16753 
-0.278999 0.991007 0.190785 
-0.250132 1.15766 0.158717 
-0.248716 0.994581 0.198275 
-0.205589 1.03612 0.200353 
-0.175898 0.91371 0.236628 
-0.112699 1.15124 0.239744 
-0.0966184 0.916943 0.2815 
nan nan nan
-0.00605786 1.13334 0.268314 
0.0431156 0.996897 0.256646 
0.0427015 1.01995 0.232092 
0.0537085 1.01854 0.203327 
0.0747978 1.01022 0.180597 
0.118446 1.11595 0.126726 
0.017445 0.880364 0.0906663 
0.036847 0.939908 0.0716159 
0.0625208 0.864895 0.0664871 
0.0814321 0.87881 0.0547695 
0.214835 1.06022 0.0966601 
0.0990954 0.775683 0.0702559 
0.153554 0.800562 0.0982137 
0.168749 0.848879 0.170924 
0.270021 0.987631 0.251325 
0.24635 0.805988 0.201923 
0.371784 0.965167 0.282911 
0.319657 0.716165 0.129363 
0.339819 0.754168 0.190763 
0.440749 0.901311 0.328609 
0.390502 0.693253 0.243888 
0.451066 0.712988 0.315258 
0.447276 0.600784 0.301937 
0.446508 0.490339 0.294456 
0.440344 0.44195 0.29399 
0.497121 0.43853 0.320875 
0.551712 0.451946 0.346972 
0.507382 0.361427 0.280691 
0.495425 0.323709 0.229758 
0.706058 0.428547 0.181223 
0.585266 0.390139 0.0636709 
0.539537 0.410907 0.0250059 
nan nan nan
0.511446 0.372902 -0.085129 
0.422145 0.361965 -0.0914709 
0.401687 0.397416 -0.165742 
0.406617 0.435657 -0.25348 
0.414077 0.472497 -0.263241 
0.442934 0.509211 -0.287423 
0.443333 0.531687 -0.307928 
0.442722 0.520159 -0.349973 
0.4726 0.491016 -0.396864 
0.499764 0.492538 -0.434603 
0.518199 0.509254 -0.447844 
0.547135 0.527886 -0.457556 
0.549314 0.641207 -0.360933 
0.606809 0.526741 -0.458727 
0.634694 0.515118 -0.414712 
0.642969 0.499217 -0.391056 
0.657574 0.448517 -0.379616 
0.688325 0.391116 -0.361868 
0.772861 0.365442 -0.34892 
0.784958 0.356641 -0.305626 
0.715796 0.350018 -0.203589 
0.718889 0.353622 -0.181989 
0.806879 0.343146 -0.190478 
0.734183 0.320187 -0.171379 
0.703245 0.29787 -0.200458 
0.723709 0.286692 -0.257991 
0.804743 0.282184 -0.339091 
0.737271 0.290012 -0.337278 
0.705189 0.276221 -0.313249 
0.69465 0.242013 -0.333387 
0.660311 0.237432 -0.305377 
nan nan nan
0.641025 0.233546 -0.356808 
0.591618 0.255191 -0.372555 
nan nan nan
0.685066 0.24157 -0.500813 
nan nan nan
0.696819 0.232317 -0.518104 
0.657021 0.231166 -0.495685 
0.78124 0.247487 -0.588666 
0.636241 0.174115 -0.486309 
0.67153 0.130466 -0.556519 
nan nan nan
0.714038 0.163425 -0.698351 
0.608989 0.0900079 -0.619765 
0.501948 0.0654732 -0.49914 
0.496051 0.0992585 -0.53396 
0.516069 0.190979 -0.636023 
0.574349 0.23162 -0.781938 
0.348808 0.181028 -0.560686 
0.295905 0.191499 -0.545224 
0.459041 0.30881 -0.816549 
0.303518 0.305808 -0.632409 
0.275736 0.34192 -0.6966 
0.182364 0.427894 -0.709152 
0.230047 0.413124 -0.887915 
0.0309806 0.438803 -0.672804 
-0.00181434 0.461168 -0.742122 
-0.0594863 0.515849 -0.769166 
-0.115181 0.509146 -0.740891 
-0.125983 0.569735 -0.76918 
-0.105614 0.603602 -0.883515 
-0.20012 0.590124 -0.753346 
-0.235358 0.577816 -0.745861 
-0.220202 0.601503 -0.83295 
-0.127169 0.60439 -1.01274 
-0.275291 0.602097 -0.776279 
-0.250564 0.59085 -0.823193 
-0.242689 0.557995 -0.841714 
-0.251968 0.56392 -0.840421 
-0.219032 0.533368 -0.937912 
nan nan nan
-0.270739 0.473773 -0.858756 
-0.256829 0.459886 -0.935536 
-0.273319 0.424731 -0.876896 
-0.208995 0.427315 -1.03846 
-0.311532 0.390727 -0.820125 
-0.331864 0.362869 -0.797204 
-0.280452 0.341503 -0.813814 
-0.253478 0.340527 -0.74967 
-0.198062 0.282624 -0.874377 
-0.145754 0.304668 -1.0244 
-0.198534 0.255687 -0.798235 
-0.179074 0.20899 -0.801657 
-0.170747 0.16201 -0.818082 
-0.172296 0.0976246 -0.994403 
-0.171832 0.125661 -0.744075 
-0.144559 0.121166 -0.847571 
-0.129741 0.0820661 -1.01574 
-0.0752135 0.0783801 -0.80487 
-0.0212039 0.0602706 -0.854391 
-0.0229762 0.00553605 -0.822352 
-0.0132751 -0.0468118 -0.798664 
0.0480915 -0.137999 -1.01727 
0.0494423 -0.159167 -0.809494 
0.0818605 -0.121989 -0.833343 
0.134288 -0.113056 -0.852184 
0.150328 -0.0373556 -0.778302 
0.241691 -0.0800934 -0.778356 
0.281246 -0.104008 -0.746926 
0.318883 -0.111224 -0.728077 
0.375858 -0.135189 -0.847464 
0.35059 -0.0602936 -0.755509 
0.310783 -0.013511 -0.812582 
0.332801 -0.0710443 -0.982871 
0.293079 -0.130041 -0.756874 
0.305443 -0.23537 -0.92829 
0.226372 -0.220501 -0.748921 
0.205393 -0.29114 -0.73924 
0.258036 -0.355262 -0.94164 
0.157767 -0.333741 -0.682903 
0.156008 -0.373282 -0.685815 
0.148187 -0.400961 -0.690705 
0.152159 -0.464246 -0.721049 
0.144635 -0.507724 -0.717992 
0.127852 -0.495191 -0.66283 
0.218806 -0.574902 -0.867533 
0.163047 -0.493104 -0.76664 
0.210443 -0.503842 -0.759322 
0.267166 -0.524461 -0.766383 
nan nan nan
0.245864 -0.567818 -0.671207 
0.248646 -0.555987 -0.63632 
0.271475 -0.586611 -0.635889 
0.27301 -0.629734 -0.601916 
0.278547 -0.614393 -0.573088 
0.325661 -0.614168 -0.549927 
0.337942 -0.616338 -0.523807 
0.362283 -0.599387 -0.519173 
0.374229 -0.565137 -0.489155 
0.375362 -0.602809 -0.44075 
0.387766 -0.572529 -0.347173 
0.42758 -0.637252 -0.297252 
0.398073 -0.546701 -0.25972 
0.392455 -0.567824 -0.250488 
0.477251 -0.774368 -0.238453 
0.424891 -0.652148 -0.115776 
0.394455 -0.618224 -0.037013 
0.414237 -0.658383 -0.0248454 
0.418472 -0.608853 -0.0102423 
0.400894 -0.570099 0.0373285 
0.43223 -0.564678 0.0853972 
0.519738 -0.593173 0.114001 
0.549211 -0.552292 0.130342 
0.594952 -0.559346 0.216733 
0.630489 -0.636814 0.242457 
0.565159 -0.500289 0.261719 
0.563652 -0.553406 0.317749 
0.547865 -0.596143 0.318162 
0.49763 -0.537476 0.33896 
0.488204 -0.639556 0.305143 
0.598115 -0.78545 0.333275 
0.445526 -0.723738 0.220278 
0.404424 -0.743505 0.177587 
0.35992 -0.769221 0.12706 
0.364926 -0.814268 0.126999 
0.335702 -0.817645 0.127111 
0.273578 -0.730701 0.101708 
0.259556 -0.797813 0.0535917 
0.172518 -0.72101 0.0263576 
0.209364 -0.890066 -0.0958775 
0.111066 -0.748898 -0.0703848 
0.107531 -0.692055 -0.121354 
0.0794888 -0.582256 -0.168065 
0.101551 -0.602778 -0.201953 
0.0992953 -0.567496 -0.212864 
0.102618 -0.634371 -0.248597 
0.128136 -0.713813 -0.27518 
0.0663802 -0.676708 -0.311468 
nan nan nan
0.117185 -0.784408 -0.38464 
0.0494813 -0.734817 -0.40914 
0.0220206 -0.738984 -0.42157 
0.0246914 -0.782072 -0.43628 
0.0131943 -0.811728 -0.442472 
0.0273309 -0.83813 -0.44836 
0.0981766 -0.969605 -0.51621 
-0.0125457 -0.920619 -0.399581 
-0.067785 -0.926095 -0.354925 
-0.0338797 -0.983733 -0.399046 
-0.0609074 -0.989973 -0.387271 
-0.136665 -0.963511 -0.285774 
-0.123903 -0.959839 -0.353519 
-0.144688 -0.93752 -0.34791 
-0.163072 -0.891403 -0.340872 
-0.145695 -0.886913 -0.432076 
-0.137157 -0.90209 -0.485034 
-0.15286 -0.885464 -0.509485 
-0.190845 -0.86159 -0.469794 
-0.155761 -0.901547 -0.561968 
-0.218579 -0.843225 -0.502868 
-0.259534 -0.795567 -0.47422 
-0.178606 -0.876651 -0.681322 
-0.274531 -0.733342 -0.561488 
-0.288431 -0.692252 -0.594541 
-0.275398 -0.67038 -0.578507 
-0.249161 -0.662822 -0.591711 
nan nan nan
-0.270359 -0.554494 -0.67117 
-0.283517 -0.520107 -0.672305 
-0.284372 -0.515212 -0.655286 
-0.293125 -0.497339 -0.649363 
nan nan nan
-0.255894 -0.46479 -0.558897 
-0.245524 -0.489755 -0.500188 
-0.31503 -0.456443 -0.421518 
-0.334812 -0.448868 -0.369648 
nan nan nan
-0.386568 -0.445236 -0.270478 
-0.49283 -0.386501 -0.256753 
-0.54419 -0.32554 -0.259333 
nan nan nan
-0.591549 -0.241299 -0.23604 
-0.653014 -0.165675 -0.188882 
-0.548975 -0.103669 -0.306673 
-0.639982 -0.147149 -0.290528 
-0.728851 -0.0873292 -0.275986 
-0.739714 -0.0787942 -0.299168 
-0.724831 -0.123968 -0.332817 
-0.795631 -0.131454 -0.29561 
-0.79696 -0.177573 -0.313962 
-0.784918 -0.219189 -0.354624 
-0.813143 -0.207724 -0.35375 
-0.822736 -0.259258 -0.410884 
nan nan nan
-0.851265 -0.148094 -0.417156 
-0.934711 -0.301426 -0.555355 
-0.919533 -0.0917593 -0.463219 
-0.954756 -0.0777345 -0.454711 
-0.926914 -0.0255067 -0.485948 
-0.899899 -0.0446243 -0.555326 
-0.883445 0.00259955 -0.56656 
-0.917464 -0.00591984 -0.579608 
-0.9764 -0.0647905 -0.620279 
nan nan nan
-0.9149 -0.0119415 -0.595371 
-0.866626 0.0172898 -0.597583 
-0.831089 -0.0652461 -0.634688 
-0.804706 -0.140731 -0.662355 
-0.781217 -0.148648 -0.674949 
-0.716889 -0.107231 -0.660637 
-0.704974 -0.071696 -0.695101 
-0.691224 -0.0503529 -0.705548 
-0.667244 0.000924004 -0.669183 
-0.658396 -0.00462999 -0.714405 
-0.62594 0.0176523 -0.731066 
-0.599968 0.0204407 -0.772988 
-0.560518 0.0429005 -0.74382 
-0.558271 0.0895778 -0.740502 
nan nan nan
-0.574612 0.0197819 -0.957056 
-0.51452 0.0486777 -0.825749 
-0.491442 0.0785252 -0.728038 
-0.48964 0.0312404 -0.830599 
-0.478616 -0.0483832 -0.927344 
-0.454461 -0.0705695 -0.935306 
-0.440924 -0.1208 -0.93245 
-0.381147 -0.155316 -0.81377 
-0.38053 -0.158551 -0.686121 
-0.44333 -0.194595 -0.77015 
-0.466723 -0.220978 -0.758532 
-0.46321 -0.265637 -0.682289 
-0.518716 -0.296092 -0.743032 
-0.527694 -0.338145 -0.729033 
-0.583057 -0.366141 -0.786019 
-0.536996 -0.339381 -0.614069 
-0.544517 -0.395551 -0.668279 
-0.547053 -0.392427 -0.611624 
-0.566253 -0.420351 -0.609962 
-0.558364 -0.469968 -0.558505 
-0.573183 -0.498151 -0.527208 
-0.585177 -0.508959 -0.522093 
-0.569093 -0.544859 -0.487908 
nan nan nan
-0.547724 -0.654814 -0.441233 
-0.577992 -0.65401 -0.401223 
-0.578878 -0.687457 -0.375392 
-0.604872 -0.68994 -0.349493 
-0.626023 -0.677357 -0.328921 
-0.670864 -0.658849 -0.2948 
-0.710298 -0.61878 -0.27001 
-0.727354 -0.615003 -0.248949 
-0.750159 -0.597885 -0.220109 
-0.802395 -0.559158 -0.128129 
-0.830315 -0.530544 -0.0844154 
-0.862119 -0.603884 0.0218548 
-0.924887 -0.65104 0.13749 
-0.735827 -0.473042 0.0857926 
-0.754338 -0.494039 0.161434 
-0.810417 -0.599731 0.329232 
-0.680392 -0.448397 0.254028 
-0.653006 -0.438184 0.252383 
-0.707614 -0.535781 0.282758 
-0.68554 -0.538414 0.284232 
-0.596778 -0.48795 0.240513 
-0.661244 -0.523431 0.283329 
-0.786202 -0.638921 0.347363 
-0.739493 -0.569393 0.300242 
-0.687947 -0.493705 0.217585 
-0.834265 -0.596103 0.317745 
