0.658086 -0.342166 0.431041 
0.684135 -0.299635 0.411793 
0.850081 -0.367831 0.54902 
0.755603 -0.202986 0.357437 
0.729394 -0.183505 0.410327 
0.819314 -0.272731 0.607905 
0.661572 -0.121854 0.427481 
0.64487 -0.0940299 0.431661 
0.626772 -0.0995515 0.494119 
0.586653 -0.0924132 0.492332 
0.560094 -0.185017 0.537612 
0.649486 -0.283027 0.750302 
0.463962 -0.223745 0.633383 
0.434942 -0.259295 0.648608 
0.406897 -0.251771 0.648062 
0.438936 -0.270434 0.717583 
0.393979 -0.252394 0.701266 
0.440719 -0.244813 0.754033 
0.402194 -0.214655 0.755165 
0.449802 -0.223355 0.797177 
0.358766 -0.199199 0.764056 
0.333189 -0.175936 0.790197 
0.320078 -0.148579 0.81378 
0.334822 -0.161999 0.852035 
0.39313 -0.209091 0.89983 
0.394153 -0.254225 0.894681 
0.275846 -0.199891 0.868859 
0.336062 -0.224822 0.945307 
nan nan nan
0.454586 -0.370274 1.01126 
0.209852 -0.375922 0.905621 
0.182818 -0.371768 0.906592 
0.320613 -0.461842 0.904956 
0.213227 -0.454687 0.859001 
0.199195 -0.481156 0.827968 
0.307397 -0.56796 0.84649 
0.429403 -0.623349 0.908203 
0.283212 -0.543645 0.814005 
0.453089 -0.607749 0.867623 
0.282531 -0.498392 0.700813 
0.309769 -0.503696 0.693405 
nan nan nan
0.323658 -0.520235 0.695371 
0.25971 -0.497205 0.662406 
0.302398 -0.536212 0.684596 
0.235828 -0.535459 0.639297 
nan nan nan
0.192544 -0.572192 0.64072 
0.273571 -0.821335 0.704578 
0.0909166 -0.613027 0.626456 
0.0524029 -0.640925 0.589094 
0.0326174 -0.644932 0.546738 
0.0212821 -0.697154 0.499946 
0.0280714 -0.793708 0.512536 
0.0413448 -0.688631 0.427152 
0.031276 -0.763229 0.43594 
-0.0130471 -0.841805 0.429772 
-0.00830095 -0.78161 0.339189 
-0.0436332 -0.885101 0.385852 
-0.0939156 -0.855633 0.321475 
-0.130461 -0.878864 0.294564 
-0.164311 -0.84066 0.275356 
-0.209072 -0.856036 0.286112 
-0.256288 -0.812367 0.274278 
-0.296499 -0.841876 0.275722 
-0.302518 -0.831135 0.27556 
-0.285239 -0.720659 0.280669 
-0.294873 -0.724565 0.315635 
-0.385022 -0.968249 0.452367 
-0.355228 -0.73545 0.390828 
-0.369535 -0.755617 0.4273 
-0.397153 -0.787019 0.466416 
-0.400389 -0.727702 0.46923 
-0.422346 -0.735124 0.553835 
-0.408836 -0.699908 0.560935 
-0.388274 -0.663487 0.543712 
-0.455611 -0.724926 0.613789 
-0.507928 -0.758088 0.60645 
-0.55136 -0.705552 0.565518 
-0.605599 -0.825927 0.680562 
-0.648365 -0.729993 0.541035 
-0.723064 -0.706147 0.523156 
-0.772104 -0.6603 0.478606 
-0.771491 -0.648392 0.51946 
-0.784412 -0.60132 0.539725 
-0.808696 -0.558375 0.554929 
-0.846926 -0.602415 0.702762 
-0.845204 -0.430381 0.459196 
-0.822218 -0.412371 0.483963 
-0.80332 -0.388506 0.514411 
-0.803597 -0.341552 0.541012 
nan nan nan
-0.813429 -0.298839 0.569653 
-0.847573 -0.389778 0.777895 
-0.745642 -0.246045 0.585638 
-0.731764 -0.278282 0.700918 
-0.665345 -0.235498 0.643276 
-0.653485 -0.266079 0.669488 
-0.621062 -0.339465 0.726989 
-0.589071 -0.279826 0.654667 
-0.584633 -0.322571 0.671313 
-0.594613 -0.414422 0.66687 
-0.59908 -0.503386 0.669889 
-0.590843 -0.475951 0.492169 
-0.58332 -0.620975 0.782364 
-0.567406 -0.50735 0.541766 
-0.552138 -0.46232 0.497398 
-0.528209 -0.457168 0.497684 
-0.508623 -0.406015 0.462028 
-0.451874 -0.442873 0.53485 
-0.405946 -0.425627 0.569557 
-0.37422 -0.398518 0.593807 
-0.353779 -0.390137 0.582507 
-0.319512 -0.387865 0.639624 
-0.279173 -0.416849 0.82098 
-0.240295 -0.373375 0.809727 
-0.137837 -0.227549 0.572119 
-0.110097 -0.269464 0.665173 
-0.121143 -0.370225 0.770921 
nan nan nan
-0.00844764 -0.293 0.666018 
0.00693828 -0.309256 0.66824 
0.0813213 -0.238403 0.56834 
0.125904 -0.249549 0.629804 
nan nan nan
0.126339 -0.215133 0.679679 
0.117568 -0.104595 0.562571 
0.114831 -0.0511616 0.584333 
nan nan nan
0.0810166 -0.013775 0.735492 
0.117109 0.0375057 0.68745 
0.0857428 0.0202687 0.887414 
0.095169 0.0924028 0.628948 
-0.0104324 0.0290602 0.858813 
0.0117613 0.1187 0.615957 
-0.00165096 0.194549 0.630669 
nan nan nan
0.0150394 0.318786 0.562002 
nan nan nan
0.0214364 0.440721 0.493897 
0.00353203 0.462494 0.472965 
-0.0463414 0.491104 0.457299 
-0.212435 0.553592 0.640685 
-0.153866 0.533746 0.529743 
-0.152559 0.530363 0.537394 
-0.111022 0.497677 0.417692 
-0.142459 0.505866 0.392084 
-0.308032 0.561426 0.610258 
-0.185656 0.564841 0.356619 
-0.162771 0.584236 0.324127 
-0.13077 0.612464 0.28619 
-0.13288 0.617157 0.238883 
-0.117378 0.64494 0.190734 
-0.114809 0.658198 0.150737 
-0.0870968 0.675782 0.0973549 
-0.0729306 0.678273 0.0830475 
-0.0408883 0.764062 0.0338961 
-0.0540438 0.751331 0.0185474 
-0.0767984 0.768496 -0.0230188 
-0.0369291 0.809279 -0.0437283 
0.0178832 0.884809 -0.0671073 
0.0603235 1.01515 -0.112546 
0.0819212 1.03619 -0.10674 
0.134859 0.894682 -0.0488887 
0.157791 0.853532 -0.0351405 
0.186159 0.79528 -0.0274411 
0.2152 0.785564 -0.025714 
0.28995 1.0286 -0.0476906 
0.319613 0.718903 -0.048241 
0.340721 0.783681 -0.0419922 
0.381934 0.830142 -0.0249174 
0.419698 0.965904 0.00326693 
0.408733 0.750032 0.0226676 
0.378781 0.758749 0.0594151 
0.366131 0.79224 0.127444 
0.330675 0.695525 0.165919 
0.312941 0.676339 0.216644 
0.340278 0.659307 0.26162 
0.486685 0.651332 0.32506 
0.426333 0.467571 0.213468 
0.459088 0.367833 0.16268 
0.431231 0.353799 0.159692 
0.35789 0.355098 0.160627 
0.301692 0.316666 0.145208 
0.225973 0.283293 0.165715 
0.17368 0.275888 0.115723 
0.100666 0.28538 0.0888287 
0.0567938 0.27445 0.0369006 
-0.0698919 0.341257 -0.0561581 
-0.00982369 0.187497 -0.0798612 
-0.0092363 0.150264 -0.0863138 
-0.058502 0.157801 -0.0555181 
-0.204078 0.257868 -0.0667005 
-0.233804 0.246071 -0.046686 
-0.16818 0.139612 0.0441406 
-0.172665 0.0740791 0.0754899 
-0.191944 0.033344 0.102686 
-0.245256 0.0935452 0.104225 
-0.2556 0.0720725 0.126571 
-0.277317 0.0858282 0.128933 
-0.325116 0.0977328 0.13071 
-0.387075 0.0904012 0.133415 
-0.446516 0.0547022 0.101482 
-0.477708 0.0148622 0.0929866 
-0.51621 -0.0417392 0.0612881 
-0.5537 -0.134693 0.0362023 
-0.592632 -0.167235 0.034641 
nan nan nan
-0.676443 -0.245504 0.0250688 
-0.717941 -0.299891 0.0398616 
-0.780125 -0.283889 0.0472451 
-0.811467 -0.324422 0.125518 
-0.8507 -0.307612 0.157683 
-0.877263 -0.219021 0.242011 
-0.880874 -0.193338 0.265684 
-0.896918 -0.144191 0.351401 
-0.922283 -0.0940787 0.420028 
-0.943894 -0.0236911 0.443036 
-0.923041 0.0419641 0.430049 
-0.878972 0.074033 0.434936 
-0.838303 0.0998288 0.48316 
-1.11008 0.224112 0.600434 
-0.890394 0.110603 0.556857 
-0.850841 0.110419 0.585381 
-0.894153 0.155941 0.606112 
-0.861733 0.188489 0.600036 
-0.982499 0.223484 0.558345 
-0.982952 0.256939 0.549373 
-0.989935 0.258793 0.522656 
-0.847338 0.23296 0.523619 
-0.87656 0.298902 0.544377 
-1.04125 0.462249 0.619327 
-0.826227 0.358939 0.54547 
-0.746064 0.306106 0.504061 
-1.01556 0.463008 0.549777 
-0.832464 0.358287 0.472112 
-0.791256 0.303448 0.385776 
-0.822438 0.359544 0.34938 
-0.933849 0.508172 0.375824 
-0.772066 0.395167 0.304208 
-0.933227 0.531776 0.376431 
-0.757067 0.397304 0.272446 
-0.675641 0.399001 0.241734 
-0.628351 0.400871 0.223308 
-0.659707 0.494301 0.275254 
-0.783146 0.675085 0.386405 
-0.590833 0.596637 0.278969 
-0.561086 0.69852 0.291497 
-0.489437 0.747857 0.292818 
-0.419308 0.841283 0.309177 
-0.361988 0.864421 0.344582 
-0.37447 0.964378 0.40083 
-0.300849 0.904887 0.435332 
-0.2382 1.17625 0.459015 
-0.115287 0.924614 0.520017 
-0.0707776 1.02814 0.489747 
-0.0402353 0.917183 0.549768 
0.00322137 0.967054 0.535115 
0.0599676 0.924296 0.569912 
0.147196 0.970486 0.549424 
0.187707 0.837757 0.543924 
0.168132 1.20021 0.511997 
0.25199 1.0531 0.542361 
0.207591 1.19802 0.538128 
0.220315 1.06409 0.561212 
0.215398 0.976438 0.576191 
0.194923 1.20462 0.539175 
0.16649 0.97659 0.531406 
0.156286 1.03363 0.458532 
0.13717 0.964717 0.424421 
0.129186 0.964852 0.380049 
0.166205 1.10466 0.361291 
0.171147 0.954067 0.342561 
0.177919 0.990903 0.310472 
0.179459 1.06139 0.275958 
0.127191 0.972796 0.266889 
0.109583 1.01495 0.246366 
0.086956 1.04678 0.243201 
0.0472969 1.02936 0.263917 
-0.00186731 1.16314 0.255036 
-0.0310777 1.32024 0.220958 
-0.097599 1.06009 0.232875 
-0.112169 1.02848 0.240795 
-0.121282 1.04809 0.235449 
-0.138016 1.11766 0.229895 
-0.161927 1.09066 0.235821 
-0.183675 1.28381 0.233737 
-0.192593 1.08503 0.220618 
-0.234082 1.10413 0.213756 
-0.255935 0.985117 0.228964 
-0.388608 1.20033 0.231866 
-0.333406 0.967938 0.240005 
nan nan nan
-0.493263 1.13868 0.230367 
-0.499571 0.99075 0.207199 
-0.497508 1.01735 0.189961 
-0.502284 1.01491 0.169909 
-0.513995 0.994947 0.130764 
-0.591154 1.09554 0.0755107 
-0.389989 0.837249 0.074697 
-0.399992 0.86307 0.0479657 
-0.418886 0.795319 0.0189238 
-0.437421 0.807771 -0.00387019 
-0.581386 0.950389 -0.0385272 
-0.46128 0.717637 0.00685958 
-0.524256 0.730663 0.027596 
-0.5772 0.777986 0.0741144 
-0.716216 0.902878 0.120862 
-0.656777 0.715281 0.0604219 
-0.820816 0.840078 0.110806 
-0.694985 0.620473 -0.0470723 
-0.734797 0.638891 0.00385096 
-0.922518 0.768558 0.150713 
-0.807534 0.57391 0.0394506 
-0.888264 0.566737 0.111634 
-0.880635 0.442804 0.102718 
-0.858942 0.342416 0.10202 
-0.839409 0.293727 0.0994044 
-0.893393 0.252067 0.109347 
-0.961116 0.245902 0.132737 
-0.894487 0.147871 0.0512685 
-0.85862 0.131442 0.00479314 
-1.05612 0.186979 -0.116467 
-0.895876 0.195873 -0.172715 
-0.839084 0.239942 -0.203742 
nan nan nan
-0.729881 0.190092 -0.29468 
-0.655339 0.221735 -0.271721 
-0.604378 0.25777 -0.329872 
-0.577434 0.283602 -0.397711 
-0.568357 0.32445 -0.438639 
-0.573715 0.366308 -0.501406 
-0.570035 0.380288 -0.527117 
-0.558052 0.350499 -0.541149 
-0.570979 0.285814 -0.578275 
-0.587637 0.270316 -0.625499 
-0.585047 0.279675 -0.660092 
-0.605822 0.319313 -0.717781 
-0.633363 0.411936 -0.642796 
-0.654218 0.307577 -0.737127 
-0.70087 0.313087 -0.711907 
-0.72547 0.298518 -0.670277 
-0.751895 0.254661 -0.654833 
-0.803686 0.187021 -0.63394 
-0.892556 0.136486 -0.650884 
-0.935374 0.162286 -0.594809 
-0.917222 0.181098 -0.482202 
-0.930852 0.196428 -0.447136 
-0.974807 0.207076 -0.464192 
-0.918063 0.184455 -0.438931 
-0.860128 0.145292 -0.453519 
-0.843516 0.11946 -0.512039 
-0.880226 0.0542051 -0.62406 
-0.84003 0.0762778 -0.601047 
-0.843155 0.0980434 -0.537401 
-0.825242 0.0470629 -0.527027 
-0.800684 0.049372 -0.480764 
nan nan nan
-0.747998 0.0565194 -0.548104 
-0.708383 0.0889754 -0.556883 
nan nan nan
-0.705008 -0.00583363 -0.771003 
nan nan nan
-0.698369 -0.0208498 -0.781854 
-0.674362 0.0345401 -0.723652 
-0.748904 -0.0842325 -0.849984 
-0.665477 -0.00866114 -0.678969 
-0.66507 -0.105407 -0.740359 
nan nan nan
-0.687514 -0.205165 -0.773002 
-0.671525 -0.159552 -0.610717 
-0.630801 -0.104355 -0.465056 
-0.604056 -0.0824622 -0.486662 
-0.554692 -0.068529 -0.538335 
-0.499355 -0.16392 -0.645757 
-0.416266 -0.0238997 -0.463161 
-0.385635 0.00330721 -0.452261 
-0.401809 -0.0839689 -0.631568 
-0.329845 0.0699707 -0.51659 
-0.281152 0.103221 -0.543289 
-0.199388 0.249657 -0.5114 
-0.206394 0.30921 -0.645032 
-0.109075 0.29299 -0.495726 
-0.0690742 0.349015 -0.528868 
-0.046347 0.419689 -0.55323 
-0.0158835 0.423518 -0.539566 
-0.0417192 0.482665 -0.565164 
-0.0627212 0.519309 -0.654812 
-0.0256802 0.546925 -0.524842 
-0.0140503 0.582161 -0.524505 
-0.0259151 0.614424 -0.63707 
-0.0326676 0.597707 -0.881697 
-0.00589033 0.639663 -0.589127 
-0.0105806 0.637727 -0.634647 
0.00131005 0.613001 -0.657081 
0.0129353 0.631703 -0.656453 
0.0304619 0.599194 -0.757501 
nan nan nan
0.0932762 0.578402 -0.691574 
0.110553 0.572507 -0.742847 
0.132702 0.54437 -0.695393 
0.150162 0.556957 -0.895219 
0.190816 0.493834 -0.583521 
0.20251 0.469437 -0.550965 
0.179887 0.425735 -0.581335 
0.148529 0.379822 -0.565238 
0.152218 0.363425 -0.699671 
0.205137 0.447433 -0.891543 
0.156955 0.317799 -0.638807 
0.160234 0.265851 -0.653239 
0.167795 0.207912 -0.716243 
0.232312 0.201577 -0.912133 
0.151633 0.156614 -0.692545 
0.14673 0.178571 -0.783845 
0.157454 0.208783 -0.91886 
0.0607389 0.135962 -0.783875 
0.0376065 0.13982 -0.828053 
0.0210226 0.0813802 -0.843308 
-0.00112623 0.0133486 -0.872504 
0.0289313 -0.0915689 -1.09549 
-0.046013 -0.0623245 -0.89896 
-0.0636053 -0.0334795 -0.894459 
-0.095233 -0.0178211 -0.923462 
-0.161952 0.0484728 -0.874439 
-0.244504 0.0314543 -0.893632 
-0.29347 0.0170051 -0.895639 
-0.348434 0.0183715 -0.89609 
-0.39795 -0.0721904 -0.947164 
-0.37475 0.0656111 -0.897842 
-0.327992 0.0717076 -0.89492 
-0.263364 -0.0553613 -1.10224 
-0.277665 -0.103047 -0.924479 
-0.24521 -0.184233 -1.05537 
-0.218888 -0.172637 -0.882573 
-0.174106 -0.228792 -0.863915 
-0.148903 -0.287421 -1.04731 
-0.120556 -0.272591 -0.796942 
-0.113458 -0.302553 -0.801993 
-0.114267 -0.315575 -0.800898 
-0.112104 -0.370662 -0.821977 
-0.112186 -0.427855 -0.823792 
-0.13552 -0.412179 -0.767347 
-0.102763 -0.547591 -1.04126 
-0.145649 -0.398161 -0.809861 
-0.193248 -0.405361 -0.82058 
-0.242077 -0.460116 -0.856479 
nan nan nan
-0.250921 -0.507652 -0.80908 
-0.262268 -0.519077 -0.781615 
-0.272471 -0.554493 -0.789809 
-0.242381 -0.62101 -0.765064 
-0.275296 -0.601548 -0.722853 
-0.308377 -0.630445 -0.719725 
-0.335801 -0.633893 -0.697304 
-0.354756 -0.627832 -0.696868 
-0.393361 -0.59802 -0.659211 
-0.385186 -0.623642 -0.611067 
-0.44818 -0.599249 -0.493668 
-0.450312 -0.672763 -0.441231 
-0.46834 -0.614912 -0.414039 
-0.460917 -0.624166 -0.397545 
-0.420138 -0.849114 -0.414324 
-0.482991 -0.708307 -0.276457 
-0.488309 -0.679244 -0.193945 
-0.497642 -0.727246 -0.193638 
-0.521065 -0.707165 -0.189682 
-0.533364 -0.684739 -0.157993 
-0.570827 -0.690953 -0.126147 
-0.62097 -0.707579 -0.0993744 
-0.655686 -0.659214 -0.0795372 
-0.687487 -0.639159 0.00809996 
-0.710636 -0.691883 0.0177258 
-0.705802 -0.587456 0.0401795 
-0.685957 -0.620253 0.104169 
-0.673183 -0.704997 0.139934 
-0.657303 -0.664656 0.16582 
-0.631018 -0.753799 0.125617 
-0.658503 -0.977197 0.123355 
-0.551039 -0.833965 0.0332572 
-0.501672 -0.817235 0.0106623 
-0.424716 -0.849827 -0.0236025 
-0.384507 -0.914553 -0.0387468 
-0.357647 -0.92755 -0.0356006 
-0.336528 -0.831058 -0.0481407 
-0.288856 -0.874427 -0.0951992 
-0.244533 -0.787941 -0.113265 
-0.225723 -0.895782 -0.175284 
-0.186993 -0.718943 -0.165391 
-0.184301 -0.612498 -0.192685 
-0.19406 -0.519569 -0.235434 
-0.200444 -0.50613 -0.280279 
-0.205508 -0.478297 -0.29359 
-0.17863 -0.511006 -0.325178 
-0.156192 -0.576695 -0.373324 
-0.106059 -0.569608 -0.38435 
nan nan nan
-0.0871983 -0.656057 -0.469498 
-0.077157 -0.631476 -0.446491 
-0.0520451 -0.64164 -0.447121 
-0.0370147 -0.673117 -0.451578 
-0.017112 -0.725351 -0.46119 
-0.00825774 -0.804142 -0.508787 
-0.021347 -0.940458 -0.636173 
-0.00479529 -0.867888 -0.454943 
0.0161461 -0.88136 -0.400138 
0.00496816 -0.945359 -0.422806 
0.0189191 -0.95219 -0.396258 
0.0541029 -0.894657 -0.283184 
0.066546 -0.917657 -0.34192 
0.0864969 -0.901454 -0.33829 
0.10049 -0.876764 -0.347323 
0.127279 -0.890238 -0.456235 
0.150988 -0.906552 -0.522685 
0.19265 -0.877841 -0.498273 
0.2067 -0.793987 -0.420057 
0.225063 -0.821779 -0.470668 
0.229116 -0.738083 -0.418012 
0.24244 -0.693111 -0.393247 
0.32498 -0.830936 -0.637907 
0.319522 -0.648371 -0.493595 
0.343397 -0.627632 -0.537412 
0.298692 -0.607815 -0.517434 
0.288609 -0.598195 -0.566208 
nan nan nan
0.30778 -0.484385 -0.632824 
0.329896 -0.444209 -0.612019 
0.307429 -0.444024 -0.611867 
0.303353 -0.411977 -0.62347 
nan nan nan
0.234525 -0.36782 -0.509253 
0.221719 -0.379105 -0.467552 
0.265701 -0.331583 -0.365942 
0.268788 -0.331518 -0.31918 
nan nan nan
0.276537 -0.336511 -0.173472 
0.354766 -0.2698 -0.115641 
0.417541 -0.213384 -0.113704 
nan nan nan
0.423796 -0.0981512 -0.0532738 
0.445631 -0.0195965 -0.0019509 
0.408346 0.00376806 -0.194775 
0.459042 -0.00850669 -0.130278 
0.514691 0.078599 -0.0998535 
0.547592 0.0767717 -0.113951 
0.554645 0.0337198 -0.128909 
0.595329 0.0322491 -0.0344983 
0.606008 -0.00878345 -0.0313547 
0.63196 -0.0447437 -0.0767251 
0.661826 -0.028387 -0.0680748 
0.694105 -0.0559198 -0.138617 
nan nan nan
0.7226 0.0372536 -0.135145 
0.848435 -0.07186 -0.324163 
0.761454 0.126327 -0.187577 
0.784489 0.144225 -0.17969 
0.776025 0.174391 -0.204367 
0.783908 0.154239 -0.275284 
0.768656 0.197072 -0.283189 
0.804754 0.204997 -0.293628 
0.884923 0.171944 -0.339305 
nan nan nan
0.836566 0.206851 -0.338426 
0.794817 0.218092 -0.334362 
0.799516 0.155202 -0.39158 
0.789455 0.0752836 -0.437122 
0.769548 0.0451334 -0.447927 
0.682618 0.0567875 -0.45611 
0.672005 0.0949878 -0.488961 
0.639967 0.124563 -0.499317 
0.594121 0.165709 -0.466654 
0.577372 0.16716 -0.507908 
0.572213 0.188985 -0.5305 
0.561415 0.198385 -0.582577 
0.541706 0.227907 -0.582676 
0.545793 0.262092 -0.588441 
nan nan nan
0.667538 0.191508 -0.790044 
0.56572 0.269998 -0.67904 
0.560536 0.335944 -0.618646 
0.550695 0.24324 -0.71956 
0.559047 0.122367 -0.868966 
0.537415 0.104394 -0.882916 
0.515476 0.0395578 -0.864413 
0.433135 -0.0373835 -0.751727 
0.413462 -0.0597365 -0.628393 
0.505602 -0.080761 -0.698912 
0.525672 -0.093218 -0.695273 
0.492891 -0.13661 -0.601478 
0.576471 -0.148422 -0.640198 
0.591367 -0.21193 -0.631078 
0.688282 -0.231594 -0.687622 
0.555157 -0.204295 -0.461209 
0.605427 -0.268804 -0.533875 
0.575222 -0.254488 -0.446943 
0.599634 -0.291603 -0.446161 
0.572941 -0.328656 -0.398071 
0.570514 -0.350443 -0.357475 
0.591675 -0.373115 -0.361344 
0.560993 -0.419142 -0.324406 
nan nan nan
0.572741 -0.559652 -0.335718 
0.556809 -0.549494 -0.252924 
0.539328 -0.568754 -0.197115 
0.583746 -0.569267 -0.174078 
0.594464 -0.548504 -0.141778 
0.636468 -0.52983 -0.113684 
0.665013 -0.470335 -0.0876832 
0.681042 -0.461682 -0.0659119 
0.691625 -0.439152 -0.0291255 
0.708492 -0.39368 0.0778435 
0.711653 -0.372882 0.110982 
0.73095 -0.422707 0.19893 
0.77404 -0.477942 0.395943 
0.594826 -0.337063 0.28062 
0.590228 -0.35039 0.369433 
0.658163 -0.422517 0.572518 
0.506078 -0.31625 0.386093 
0.477962 -0.328762 0.374901 
0.520856 -0.411136 0.412692 
0.514196 -0.431198 0.419147 
0.448932 -0.39835 0.361785 
0.485893 -0.418448 0.423813 
0.658336 -0.49469 0.612021 
0.581141 -0.466659 0.533246 
0.541244 -0.40234 0.46849 
0.731756 -0.464472 0.598297 
