-0.940642 -0.276582 0.224385 
-0.952003 -0.253939 0.20783 
-0.79725 -0.153955 0.182277 
-0.973869 -0.168683 0.170108 
-0.960028 -0.144663 0.22233 
-0.833697 -0.0765721 0.217462 
-0.960233 -0.124397 0.285672 
-0.948324 -0.114085 0.309529 
-0.925279 -0.0844794 0.321626 
-0.95601 -0.088087 0.358127 
-0.893596 -0.118001 0.380261 
-0.725171 -0.0246864 0.382743 
-0.780375 -0.102212 0.448162 
-0.762358 -0.111521 0.463859 
-0.767456 -0.121162 0.474283 
-0.707445 -0.0606477 0.483374 
-0.706944 -0.0917278 0.518285 
-0.716898 -0.0476568 0.528323 
-0.695155 -0.0552477 0.558899 
-0.712171 -0.0369614 0.568804 
-0.646612 -0.0615141 0.584713 
-0.657746 -0.0523985 0.607799 
-0.652242 -0.034813 0.636391 
-0.676471 -0.0431148 0.667613 
-0.711256 -0.0599078 0.704956 
-0.711415 -0.0962341 0.711746 
-0.606271 -0.0657183 0.71134 
-0.683378 -0.109485 0.725386 
nan nan nan
-0.724437 -0.158391 0.743854 
-0.601862 -0.17811 0.757182 
-0.576233 -0.171332 0.781451 
-0.642893 -0.213415 0.743051 
-0.591887 -0.235777 0.750337 
-0.559431 -0.268564 0.746451 
-0.627834 -0.283484 0.725216 
-0.702502 -0.303828 0.710589 
-0.590648 -0.301687 0.704111 
-0.71818 -0.330637 0.66597 
-0.56147 -0.280414 0.606477 
-0.597096 -0.301585 0.584855 
nan nan nan
-0.652673 -0.347432 0.594937 
-0.5644 -0.304932 0.572933 
-0.643197 -0.372496 0.596616 
-0.580703 -0.376976 0.603655 
nan nan nan
-0.546495 -0.414918 0.628459 
-0.599641 -0.548473 0.63758 
-0.432129 -0.439387 0.66445 
-0.391529 -0.467888 0.662233 
-0.338312 -0.485968 0.684429 
-0.304634 -0.533418 0.63972 
-0.317267 -0.538638 0.553009 
-0.286031 -0.606853 0.657636 
-0.282213 -0.582661 0.562713 
-0.252642 -0.550609 0.510769 
-0.240835 -0.648682 0.519427 
-0.196702 -0.548147 0.485451 
-0.161216 -0.571588 0.495654 
-0.127357 -0.59374 0.491919 
-0.106888 -0.627584 0.491843 
-0.0711505 -0.605903 0.497141 
-0.0448354 -0.63692 0.508691 
-0.0252167 -0.648473 0.496643 
-0.0358353 -0.672395 0.48909 
-0.0282536 -0.724455 0.534201 
-0.0206842 -0.677046 0.576027 
0.0194732 -0.554919 0.515051 
0.00724907 -0.644912 0.625559 
0.0140793 -0.61193 0.627299 
0.0330407 -0.568065 0.625202 
0.0444255 -0.558331 0.663008 
0.0669395 -0.498424 0.674407 
0.0688445 -0.486382 0.68351 
0.0446643 -0.466253 0.68919 
0.0868465 -0.468743 0.70842 
0.122945 -0.4733 0.712079 
0.148659 -0.449766 0.689041 
0.213538 -0.488988 0.768658 
0.22313 -0.445541 0.680513 
0.281998 -0.415447 0.712955 
0.309292 -0.38077 0.663758 
0.337304 -0.351092 0.74084 
0.357969 -0.32445 0.75848 
0.374717 -0.287147 0.772342 
0.425517 -0.278283 0.834727 
0.340769 -0.190864 0.67787 
0.316718 -0.174711 0.713296 
0.304543 -0.150062 0.741569 
0.289979 -0.0983459 0.727828 
nan nan nan
0.356748 -0.0887815 0.80439 
0.456969 -0.128774 1.00065 
0.331408 -0.0403568 0.798816 
0.343245 -0.0985074 0.917391 
0.273126 -0.0296532 0.825004 
0.257233 -0.0731449 0.852028 
0.26038 -0.124069 0.906471 
0.203571 -0.111195 0.835052 
0.221704 -0.167222 0.863151 
0.223233 -0.197801 0.877708 
0.224034 -0.242838 0.907536 
0.201671 -0.310088 0.870186 
0.218427 -0.355607 1.04473 
0.16911 -0.316164 0.891812 
0.163961 -0.291289 0.854545 
0.139295 -0.285214 0.898978 
0.118544 -0.255669 0.817263 
0.06544 -0.281789 0.911762 
0.0351099 -0.240477 0.795625 
0.0120472 -0.210601 0.741811 
-0.0156535 -0.220184 0.691713 
-0.0450812 -0.187766 0.729308 
-0.129248 -0.136242 0.881872 
-0.152847 -0.127247 0.841139 
-0.137019 -0.110017 0.603202 
-0.180855 -0.116321 0.724034 
-0.214417 -0.146487 0.806259 
nan nan nan
-0.272203 -0.144118 0.706349 
-0.289754 -0.153303 0.698845 
-0.329162 -0.125332 0.602367 
-0.34676 -0.0953407 0.641186 
nan nan nan
-0.338338 -0.0526336 0.685481 
-0.341494 0.00683629 0.554137 
-0.343204 0.0573283 0.573621 
nan nan nan
-0.339028 0.0971918 0.730905 
-0.354328 0.148241 0.67349 
-0.366631 0.181838 0.852803 
-0.302172 0.203618 0.635112 
-0.307054 0.201424 0.828851 
-0.231182 0.206171 0.642266 
-0.241636 0.265353 0.678442 
nan nan nan
-0.186883 0.422264 0.693028 
nan nan nan
-0.239522 0.562717 0.694654 
-0.251079 0.577555 0.678187 
-0.224118 0.618981 0.672494 
-0.342218 0.676627 0.709497 
-0.249121 0.679752 0.669686 
-0.24979 0.699274 0.661003 
-0.161169 0.670536 0.638253 
-0.156192 0.739631 0.61648 
-0.317706 0.830954 0.629532 
-0.136886 0.794261 0.535068 
-0.151651 0.767731 0.491448 
-0.147835 0.73678 0.435528 
-0.141501 0.695097 0.370884 
-0.189312 0.727338 0.342935 
-0.195752 0.737829 0.314339 
-0.228077 0.778286 0.295656 
-0.253649 0.726854 0.250909 
-0.260393 0.808602 0.284109 
-0.273143 0.764829 0.247226 
-0.276501 0.806314 0.274012 
-0.294799 0.844838 0.287201 
-0.345806 0.896303 0.2865 
-0.355342 0.985773 0.318325 
-0.381746 0.997992 0.300917 
-0.427241 0.932712 0.236805 
-0.449975 0.927406 0.223506 
-0.489155 0.886132 0.211109 
-0.524492 0.883008 0.188642 
-0.546515 0.935934 0.148306 
-0.623766 0.812915 0.211638 
-0.592802 0.867567 0.161101 
-0.626045 0.880662 0.130296 
-0.611316 0.948964 0.058848 
-0.633666 0.81937 0.0784009 
-0.610935 0.801692 0.0606471 
-0.59232 0.78442 0.0158908 
-0.593931 0.714233 -0.0198454 
-0.566218 0.702151 -0.0369794 
-0.599742 0.667397 -0.0955632 
-0.633646 0.618323 -0.183668 
-0.58466 0.57037 -0.0483942 
-0.635886 0.469449 0.0723132 
-0.585537 0.449651 0.0501437 
-0.537101 0.450302 0.0321421 
-0.477298 0.438424 -0.00903812 
-0.409646 0.409949 0.0673327 
-0.329184 0.41518 -0.0380189 
-0.263224 0.423251 -0.0616243 
-0.176959 0.395649 -0.091845 
-0.0823435 0.377221 -0.217321 
-0.087061 0.34492 0.0248994 
-0.0788056 0.325755 0.0772523 
-0.0759608 0.291199 0.00804055 
-0.0158896 0.309377 -0.170752 
-0.00812041 0.278043 -0.164114 
-0.0367617 0.190158 -0.0542384 
-0.0342186 0.148882 0.0108082 
-0.00801631 0.106455 0.054898 
0.0559582 0.127336 -0.0438423 
0.0742504 0.10235 -0.0261792 
0.0963569 0.128733 -0.0121312 
0.122381 0.140832 0.0175186 
0.17585 0.139249 0.0461097 
0.226686 0.126711 0.0523052 
0.267402 0.104918 0.0983488 
0.31152 0.0323826 0.11915 
0.350202 -0.0603724 0.145589 
0.385923 -0.0898431 0.179817 
nan nan nan
0.461803 -0.157286 0.222659 
0.452949 -0.185581 0.290534 
0.55696 -0.160101 0.270085 
0.515975 -0.157936 0.372673 
0.565669 -0.125464 0.400599 
0.564953 -0.0295854 0.429747 
0.555353 0.00379851 0.441627 
0.553027 0.0423011 0.491246 
0.565573 0.0787174 0.562339 
0.551988 0.151991 0.583508 
0.573248 0.199725 0.543297 
0.57973 0.228264 0.545916 
0.572186 0.275208 0.573839 
0.646613 0.431736 0.682861 
0.567614 0.300769 0.63806 
0.543379 0.291239 0.672365 
0.531627 0.353793 0.690588 
0.469088 0.348544 0.655579 
0.519608 0.390409 0.658562 
0.502748 0.394354 0.626713 
0.493935 0.399792 0.615307 
0.429084 0.35577 0.586484 
0.427531 0.426414 0.589178 
0.445788 0.523292 0.61417 
0.415717 0.463626 0.568726 
0.356169 0.389689 0.551881 
0.429265 0.541414 0.579145 
0.408648 0.467308 0.533364 
0.41386 0.400315 0.472251 
0.391981 0.469714 0.446861 
0.358602 0.594001 0.508369 
0.357468 0.481361 0.394573 
0.330198 0.604977 0.464356 
0.349421 0.479425 0.361073 
0.338299 0.465903 0.306919 
0.325675 0.452005 0.264735 
0.308501 0.539851 0.296039 
0.280092 0.636214 0.35963 
0.293416 0.593322 0.208814 
0.254412 0.689121 0.193844 
0.225159 0.726256 0.137612 
0.184408 0.79677 0.120656 
0.126026 0.833078 0.0881765 
0.128021 0.909931 0.0434434 
0.0479094 0.853337 0.029966 
0.0450161 0.995085 -0.0599711 
-0.0478283 0.82804 -0.066747 
-0.0958827 0.903583 -0.106032 
-0.122097 0.80687 -0.122024 
-0.168943 0.857346 -0.145627 
-0.19645 0.857434 -0.174629 
-0.231354 0.882713 -0.19077 
-0.236664 0.792699 -0.242924 
-0.28476 0.94098 -0.219077 
-0.28877 0.885313 -0.22238 
-0.293221 0.966455 -0.223749 
-0.281663 0.928654 -0.210141 
-0.259443 0.866557 -0.227331 
-0.27418 1.02214 -0.231892 
-0.234061 0.889944 -0.16248 
-0.241049 0.908641 -0.14243 
-0.232633 0.881688 -0.0983494 
-0.240915 0.913921 -0.0667757 
-0.265531 1.00449 -0.0810746 
-0.279318 0.925136 -0.0551212 
-0.283503 0.976518 -0.0389903 
-0.270121 1.06783 -0.0313531 
-0.250451 0.987334 0.00747085 
-0.230575 1.00126 0.0175641 
-0.1917 1.01758 0.0410699 
-0.180203 1.0026 0.0524966 
-0.145239 1.08241 0.0787544 
-0.111061 1.14525 0.09694 
-0.120659 1.02427 0.129156 
-0.101062 1.0081 0.148139 
-0.10031 1.00647 0.136294 
-0.0658842 1.01804 0.147285 
-0.0469554 0.980329 0.15397 
0.01362 1.10778 0.15535 
-0.00654641 0.955066 0.163844 
0.0356255 0.984094 0.174666 
0.0402824 0.895314 0.193399 
0.115895 1.04133 0.195127 
0.134297 0.886927 0.195013 
nan nan nan
0.178557 1.05337 0.257168 
0.272296 0.952322 0.214832 
0.275525 0.980782 0.207596 
0.314308 1.00047 0.205019 
0.341566 1.00713 0.19931 
0.361784 1.09576 0.246916 
0.374377 0.988649 0.0674117 
0.378061 1.04284 0.114789 
0.401284 0.99605 0.0759995 
0.43254 0.998853 0.111806 
0.47036 1.06423 0.272184 
0.474416 0.899783 0.0325137 
0.501258 0.89191 0.11172 
0.446867 0.868203 0.166842 
0.472604 0.909688 0.324127 
0.481794 0.804229 0.213888 
0.541119 0.848906 0.348837 
0.573408 0.710073 0.146082 
0.566222 0.697818 0.225952 
0.586803 0.766937 0.394777 
0.567516 0.634054 0.283644 
0.580993 0.613331 0.340589 
0.58411 0.539777 0.316552 
0.574829 0.452523 0.284939 
0.564224 0.399262 0.274452 
0.589437 0.390323 0.265115 
0.626384 0.391816 0.281636 
0.608147 0.337515 0.244965 
0.599448 0.287657 0.205309 
0.755625 0.368843 0.16345 
0.659389 0.341517 0.073368 
0.642777 0.334584 0.000592609 
nan nan nan
0.664657 0.326223 -0.107002 
0.566595 0.320479 -0.100352 
0.566365 0.355663 -0.176169 
0.562545 0.357641 -0.267652 
0.575203 0.380173 -0.279779 
0.588254 0.389792 -0.319935 
0.586244 0.418407 -0.358896 
0.561813 0.404624 -0.39176 
0.563068 0.366052 -0.435879 
0.577075 0.362355 -0.466316 
0.592401 0.376019 -0.483607 
0.623636 0.378317 -0.489369 
0.672425 0.488044 -0.483978 
0.659756 0.366539 -0.509161 
0.681014 0.348889 -0.501634 
0.696339 0.327629 -0.491452 
0.703116 0.27696 -0.471605 
0.723013 0.230346 -0.449204 
0.777405 0.216056 -0.427162 
0.794388 0.195652 -0.400881 
0.769552 0.213108 -0.313168 
0.78619 0.218906 -0.302237 
0.861259 0.15334 -0.346271 
0.810293 0.150387 -0.299258 
0.772704 0.156206 -0.310645 
0.775031 0.131787 -0.358661 
0.810697 0.112632 -0.415889 
0.751451 0.118782 -0.423628 
0.713945 0.119047 -0.415479 
0.692242 0.103159 -0.433856 
0.678392 0.101405 -0.400866 
nan nan nan
0.667578 0.0987683 -0.422621 
0.615849 0.138759 -0.422897 
nan nan nan
0.658546 0.0807938 -0.50449 
nan nan nan
0.652611 0.0627493 -0.520353 
0.612477 0.0701776 -0.499841 
0.725325 0.0301614 -0.598342 
0.57364 0.017344 -0.472785 
0.584473 -0.0440604 -0.544097 
nan nan nan
0.649746 -0.00526852 -0.69193 
0.558863 -0.0219111 -0.645805 
0.45515 -0.0342943 -0.545668 
0.455734 -0.0082182 -0.577407 
0.525214 0.0576913 -0.716808 
0.532974 0.0827568 -0.822814 
0.361549 0.0882624 -0.640468 
0.307329 0.115331 -0.613335 
0.459294 0.147807 -0.870479 
0.334211 0.201492 -0.737714 
0.300135 0.230403 -0.793492 
0.246648 0.323854 -0.789123 
0.260324 0.287845 -0.952925 
0.0984725 0.36338 -0.75707 
0.0541625 0.391034 -0.835123 
0.005916 0.467309 -0.861728 
-0.0594299 0.485981 -0.80365 
-0.0772673 0.53845 -0.813519 
-0.070921 0.543846 -0.929608 
-0.149892 0.541418 -0.812735 
-0.189233 0.524466 -0.79529 
-0.179726 0.554266 -0.870399 
-0.131584 0.557274 -0.99925 
-0.238413 0.552763 -0.80248 
-0.218902 0.52532 -0.860378 
-0.219767 0.496611 -0.868306 
-0.221538 0.499517 -0.877314 
-0.216857 0.478551 -0.928405 
nan nan nan
-0.270797 0.426276 -0.861129 
-0.241176 0.425312 -0.933305 
-0.259301 0.383373 -0.877147 
-0.205399 0.379971 -1.00498 
-0.285096 0.358858 -0.825228 
-0.29518 0.318706 -0.806124 
-0.240883 0.296965 -0.831565 
-0.256455 0.279166 -0.774218 
-0.215055 0.224463 -0.870593 
-0.148748 0.230535 -0.984543 
-0.215202 0.196104 -0.789136 
-0.189985 0.157238 -0.775263 
-0.176178 0.111946 -0.800149 
-0.186629 0.0336811 -0.945269 
-0.180174 0.0775017 -0.728454 
-0.163866 0.0484478 -0.816209 
-0.140654 -0.0166155 -0.964051 
-0.108756 -0.0095633 -0.764885 
-0.0446391 -0.053569 -0.812458 
-0.0852886 -0.0975542 -0.753623 
-0.0914493 -0.138323 -0.713285 
-0.034901 -0.225046 -0.897337 
-0.0410122 -0.239217 -0.714385 
0.00619701 -0.221635 -0.766798 
0.0412568 -0.226932 -0.788071 
0.0858256 -0.143733 -0.735052 
0.1446 -0.199741 -0.713357 
0.169681 -0.226574 -0.675944 
0.214438 -0.23053 -0.662159 
0.275605 -0.243763 -0.792774 
0.294766 -0.201507 -0.710334 
0.254625 -0.16549 -0.752567 
0.259043 -0.214578 -0.900324 
0.198454 -0.242177 -0.67457 
0.215232 -0.360673 -0.861639 
0.144315 -0.339747 -0.665521 
0.128684 -0.396847 -0.641775 
0.155994 -0.48222 -0.840308 
0.0804676 -0.430838 -0.594147 
0.0744119 -0.463516 -0.607224 
0.0509423 -0.50338 -0.613983 
0.0400043 -0.546962 -0.638204 
0.0197612 -0.585524 -0.626879 
-0.0114429 -0.573962 -0.578142 
0.0684645 -0.642243 -0.710259 
0.0418331 -0.601394 -0.652818 
0.0708032 -0.626109 -0.659555 
0.116537 -0.638419 -0.667221 
nan nan nan
0.0938044 -0.6603 -0.572609 
0.081094 -0.662877 -0.532213 
0.0975796 -0.692078 -0.521568 
0.0862743 -0.728709 -0.498561 
0.0860469 -0.774903 -0.504476 
0.134299 -0.73084 -0.462684 
0.150023 -0.735368 -0.431131 
0.175126 -0.722484 -0.424554 
0.195412 -0.719047 -0.403943 
0.202853 -0.729031 -0.349834 
0.201406 -0.70042 -0.272756 
0.234022 -0.771911 -0.23386 
0.228444 -0.665675 -0.20858 
0.2228 -0.679582 -0.184919 
0.285721 -0.840708 -0.107476 
0.266186 -0.745481 -0.0396803 
0.240534 -0.663621 0.0370076 
0.258897 -0.689724 0.0602151 
0.262299 -0.65329 0.056493 
0.260138 -0.589387 0.103139 
0.296884 -0.583403 0.154902 
0.362071 -0.642637 0.189585 
0.392196 -0.596368 0.213855 
0.442471 -0.637658 0.300212 
0.452631 -0.723309 0.311828 
0.423434 -0.603226 0.33589 
0.419228 -0.6513 0.36541 
0.399998 -0.680777 0.372429 
0.356083 -0.593413 0.396198 
0.312142 -0.663131 0.368714 
0.394495 -0.803537 0.358634 
0.237557 -0.713092 0.290275 
0.183079 -0.731896 0.268182 
0.141644 -0.729462 0.219612 
0.134471 -0.766285 0.208874 
0.106227 -0.760415 0.197506 
0.0787824 -0.660236 0.193345 
0.0696918 -0.731609 0.164664 
-0.00740719 -0.620219 0.131354 
-0.0373724 -0.824824 0.0484008 
-0.0762993 -0.664095 0.0270043 
-0.0593146 -0.670659 -0.0294098 
-0.0689951 -0.578514 -0.0834383 
-0.0665257 -0.642649 -0.0887252 
-0.046579 -0.601945 -0.125417 
-0.0649156 -0.68547 -0.148283 
-0.0771973 -0.752189 -0.133589 
-0.111642 -0.707698 -0.185744 
nan nan nan
-0.095015 -0.829148 -0.22126 
-0.114738 -0.773211 -0.304865 
-0.131135 -0.770089 -0.326508 
-0.147323 -0.796191 -0.304923 
-0.164277 -0.811906 -0.298281 
-0.181415 -0.826671 -0.30608 
-0.195666 -0.92714 -0.234611 
-0.177036 -0.878083 -0.362695 
-0.188149 -0.880904 -0.432415 
-0.207694 -0.913901 -0.387978 
-0.21121 -0.9082 -0.413932 
-0.203756 -0.927523 -0.506815 
-0.231594 -0.881463 -0.465833 
-0.240191 -0.879371 -0.478121 
-0.243677 -0.833845 -0.508909 
-0.279616 -0.821337 -0.4667 
-0.296349 -0.82338 -0.435641 
-0.322442 -0.802698 -0.431938 
-0.329729 -0.793968 -0.458294 
-0.362972 -0.799504 -0.361259 
-0.359903 -0.787542 -0.394839 
-0.39802 -0.768404 -0.457423 
-0.418354 -0.743018 -0.297952 
-0.420275 -0.662251 -0.437112 
-0.432444 -0.63215 -0.433936 
-0.436099 -0.632128 -0.470132 
-0.419693 -0.627235 -0.493574 
nan nan nan
-0.431128 -0.559643 -0.61008 
-0.418907 -0.509767 -0.607002 
-0.420117 -0.501627 -0.588004 
-0.410314 -0.468141 -0.55031 
nan nan nan
-0.383577 -0.44971 -0.519954 
-0.357677 -0.474032 -0.432901 
-0.384071 -0.415523 -0.370941 
-0.398354 -0.386297 -0.307074 
nan nan nan
-0.442421 -0.353202 -0.219297 
-0.502114 -0.261304 -0.221887 
-0.492584 -0.175677 -0.226041 
nan nan nan
-0.537338 -0.107652 -0.237031 
-0.5939 -0.048375 -0.199109 
-0.479974 0.0496233 -0.292545 
-0.579005 0.026571 -0.249008 
-0.707265 0.0253842 -0.211971 
-0.720887 0.0380543 -0.241782 
-0.664593 0.0973952 -0.298187 
-0.762334 0.0337249 -0.277359 
-0.707692 0.0317717 -0.348737 
-0.679901 0.0183135 -0.381463 
-0.72268 -0.000463033 -0.373767 
-0.680864 0.104873 -0.427996 
nan nan nan
-0.779907 -0.0610459 -0.432204 
-0.782582 0.176407 -0.470556 
-0.873686 -0.0177507 -0.440375 
-0.902334 -0.0294914 -0.421988 
-0.922513 -0.0863629 -0.455327 
-0.894331 -0.0811703 -0.513133 
-0.893123 -0.136548 -0.554953 
-0.925322 -0.0967422 -0.54064 
-0.938343 -0.0409854 -0.538089 
nan nan nan
-0.910557 -0.100378 -0.562133 
-0.877994 -0.164096 -0.606152 
-0.811993 -0.129896 -0.617891 
-0.792929 -0.072312 -0.615891 
-0.773649 -0.0599571 -0.633484 
-0.760494 -0.0987166 -0.688214 
-0.753361 -0.0767343 -0.721492 
-0.74996 -0.0571982 -0.732525 
-0.774776 -0.0517003 -0.779117 
-0.737486 -0.0433568 -0.777997 
-0.709298 -0.0573619 -0.817747 
-0.667561 -0.0550775 -0.832206 
-0.657985 -0.0994024 -0.858975 
-0.670691 -0.0859749 -0.904228 
nan nan nan
-0.547356 0.043538 -0.817464 
-0.567327 -0.0445611 -0.864201 
-0.584152 -0.108884 -0.934952 
-0.520485 -0.0570232 -0.864572 
-0.48216 -0.0600584 -0.789156 
-0.465658 -0.0873546 -0.770143 
-0.454528 -0.125269 -0.749059 
-0.479884 -0.206843 -0.777392 
-0.551374 -0.307292 -0.832134 
-0.533258 -0.244171 -0.752274 
-0.55725 -0.260164 -0.72391 
-0.594061 -0.329954 -0.723188 
-0.582109 -0.282751 -0.652564 
-0.589175 -0.288013 -0.631132 
-0.573474 -0.263398 -0.595545 
-0.665178 -0.378872 -0.657513 
-0.613459 -0.339889 -0.585672 
-0.630517 -0.374715 -0.59204 
-0.618754 -0.357715 -0.553472 
-0.650623 -0.414027 -0.536978 
-0.681946 -0.46036 -0.531403 
-0.670242 -0.41294 -0.487516 
-0.676456 -0.468292 -0.469112 
nan nan nan
-0.645982 -0.505584 -0.360756 
-0.687488 -0.485222 -0.330008 
-0.703979 -0.528343 -0.313926 
-0.713436 -0.488858 -0.298217 
-0.741474 -0.506447 -0.281346 
-0.770841 -0.457608 -0.255447 
-0.790943 -0.415284 -0.238175 
-0.804435 -0.394382 -0.220158 
-0.828107 -0.373297 -0.210614 
-0.908212 -0.337525 -0.128384 
-0.923406 -0.315445 -0.0509524 
-0.828277 -0.305354 0.00864 
-0.772039 -0.288393 0.0566947 
-0.958162 -0.329776 0.125831 
-0.903846 -0.309433 0.181571 
-0.744555 -0.275346 0.239184 
-0.90709 -0.30003 0.298018 
-0.925368 -0.307794 0.327799 
-0.843518 -0.308479 0.306615 
-0.845917 -0.311934 0.31366 
-0.925304 -0.36551 0.34552 
-0.868237 -0.328249 0.323294 
-0.749508 -0.30181 0.289694 
-0.817969 -0.304214 0.290546 
-0.939234 -0.338215 0.272037 
-0.775565 -0.250625 0.260542 
