-0.717978 -0.148356 -0.0812438 
-0.72466 -0.16483 -0.0705063 
-0.684147 -0.229085 -0.0297454 
-0.734121 -0.202678 -0.0611837 
-0.733345 -0.225559 -0.0564972 
-0.694119 -0.283981 -0.0297811 
-0.734381 -0.268249 -0.0555885 
-0.730876 -0.281266 -0.0557813 
-0.722667 -0.301622 -0.0525149 
-0.731869 -0.310782 -0.0593737 
-0.717956 -0.332439 -0.0849066 
-0.660516 -0.414054 -0.0870037 
-0.679292 -0.381669 -0.143227 
-0.672283 -0.394709 -0.160162 
-0.668391 -0.393122 -0.172147 
-0.678612 -0.437579 -0.185408 
-0.657173 -0.433469 -0.198104 
-0.647058 -0.448151 -0.224308 
-0.62114 -0.425814 -0.22604 
-0.63045 -0.439653 -0.23515 
-0.604813 -0.425989 -0.242232 
-0.600101 -0.434423 -0.26024 
-0.588624 -0.445174 -0.275237 
-0.607998 -0.455926 -0.290286 
-0.622266 -0.469234 -0.308331 
-0.644047 -0.474785 -0.327183 
-0.641083 -0.439982 -0.335712 
-0.668653 -0.449618 -0.345852 
nan nan nan
-0.701688 -0.433502 -0.357646 
-0.672617 -0.397563 -0.347278 
-0.665534 -0.380496 -0.343032 
-0.683905 -0.385407 -0.34941 
-0.680496 -0.369117 -0.347055 
-0.680611 -0.339853 -0.341362 
-0.702881 -0.352984 -0.350821 
-0.728223 -0.369409 -0.361741 
-0.697488 -0.305387 -0.339084 
-0.74027 -0.31662 -0.359988 
-0.696912 -0.259902 -0.328142 
-0.691541 -0.271814 -0.34951 
nan nan nan
-0.669027 -0.271783 -0.379807 
-0.629932 -0.247168 -0.383859 
-0.64338 -0.252618 -0.423995 
-0.630071 -0.232419 -0.430331 
nan nan nan
-0.617659 -0.205175 -0.458462 
-0.656804 -0.192442 -0.510178 
-0.581396 -0.165107 -0.486527 
-0.550619 -0.148183 -0.509645 
-0.535797 -0.132266 -0.52721 
-0.536344 -0.0905171 -0.527548 
-0.537292 -0.0710901 -0.519664 
-0.522603 -0.0487668 -0.524271 
-0.514994 -0.0344235 -0.507591 
-0.503628 -0.0208256 -0.494928 
-0.496785 0.0177428 -0.51595 
-0.455548 0.00758956 -0.482964 
-0.44497 0.0170798 -0.492733 
-0.42793 0.0201347 -0.491786 
-0.415442 0.0314965 -0.501572 
-0.402542 0.0501698 -0.521115 
-0.399735 0.0648687 -0.542835 
-0.39238 0.0734154 -0.55031 
-0.388568 0.0782866 -0.552722 
-0.397433 0.0958205 -0.577611 
-0.379828 0.0806504 -0.582847 
-0.334132 0.0447072 -0.552828 
-0.35724 0.0689903 -0.603357 
-0.342238 0.0587274 -0.606862 
-0.335908 0.0541684 -0.607303 
-0.329468 0.0520639 -0.623077 
-0.310186 0.0385211 -0.621523 
-0.303055 0.0355705 -0.628342 
-0.302722 0.0332195 -0.640058 
-0.282761 0.0190264 -0.614692 
-0.272696 0.0211205 -0.618043 
-0.255197 0.0270956 -0.631493 
-0.220906 0.000253906 -0.568199 
-0.192271 0.017064 -0.611883 
-0.156012 0.0108045 -0.612263 
-0.14366 0.0215586 -0.62815 
-0.105322 0.0131528 -0.633373 
-0.0728819 0.0137085 -0.640451 
-0.041041 0.00657597 -0.651492 
0.0187161 -0.0356397 -0.722828 
0.0138336 -0.0250604 -0.636257 
0.0293466 -0.0601523 -0.65148 
0.0347012 -0.0852549 -0.653863 
0.0609776 -0.100822 -0.659997 
nan nan nan
0.139554 -0.0999723 -0.696007 
0.20902 -0.128139 -0.809224 
0.216378 -0.142969 -0.688484 
0.201843 -0.171704 -0.740514 
0.168155 -0.170743 -0.699691 
0.141882 -0.175463 -0.707851 
0.126381 -0.18065 -0.722041 
0.112125 -0.172757 -0.666998 
0.0978258 -0.181281 -0.692907 
0.0908609 -0.210899 -0.709942 
0.0753443 -0.230224 -0.74322 
0.00362075 -0.227398 -0.719953 
0.0110329 -0.261103 -0.840605 
-0.0412977 -0.253041 -0.753174 
-0.0770471 -0.242089 -0.72229 
-0.0819225 -0.262021 -0.757478 
-0.109222 -0.248705 -0.711803 
-0.134215 -0.26646 -0.735919 
-0.172694 -0.257195 -0.672691 
-0.193106 -0.258493 -0.640058 
-0.212084 -0.246962 -0.593301 
-0.223789 -0.285867 -0.609947 
-0.238563 -0.359841 -0.689339 
-0.25458 -0.386081 -0.663887 
-0.265028 -0.348304 -0.565438 
-0.263654 -0.372335 -0.627227 
-0.260488 -0.396507 -0.683234 
nan nan nan
-0.319179 -0.411349 -0.627791 
-0.340602 -0.436856 -0.624418 
-0.349785 -0.424021 -0.573624 
-0.351367 -0.455095 -0.585884 
nan nan nan
-0.351147 -0.496969 -0.576506 
-0.35277 -0.489306 -0.532788 
-0.318506 -0.524646 -0.522387 
nan nan nan
-0.264783 -0.580708 -0.54461 
-0.25657 -0.595365 -0.514835 
-0.185604 -0.653457 -0.594866 
-0.209377 -0.602021 -0.474962 
-0.170308 -0.654166 -0.594647 
-0.169392 -0.592068 -0.470853 
-0.140345 -0.629001 -0.477247 
nan nan nan
-0.0576897 -0.638445 -0.433996 
nan nan nan
-0.00537841 -0.692513 -0.492232 
0.0166636 -0.696283 -0.483929 
0.0469715 -0.686589 -0.454419 
0.0783457 -0.774536 -0.4929 
0.0969596 -0.722115 -0.442031 
0.116911 -0.740622 -0.433587 
0.122574 -0.676295 -0.391551 
0.15831 -0.704436 -0.370944 
0.166489 -0.791202 -0.395257 
0.185832 -0.709346 -0.335036 
0.206432 -0.721965 -0.303399 
0.220492 -0.745537 -0.27446 
0.24694 -0.765605 -0.24297 
0.226689 -0.779279 -0.229206 
0.217597 -0.780661 -0.220126 
0.21911 -0.785467 -0.189187 
0.225931 -0.814914 -0.170056 
0.236396 -0.824238 -0.147187 
0.239775 -0.860551 -0.151057 
0.234201 -0.866861 -0.123634 
0.218325 -0.8608 -0.106133 
0.200076 -0.86104 -0.0788217 
0.196185 -0.801949 -0.0398686 
0.17921 -0.804052 -0.0142792 
0.158706 -0.855823 0.00391316 
0.152147 -0.846672 0.0345109 
0.137027 -0.873308 0.0704994 
0.138658 -0.87261 0.105786 
0.145675 -0.838889 0.145489 
0.133397 -0.894351 0.13275 
0.135596 -0.866401 0.144638 
0.124681 -0.848898 0.160389 
0.125936 -0.792868 0.199659 
0.09378 -0.829654 0.183832 
0.0778238 -0.818842 0.197161 
0.0648376 -0.787359 0.249506 
0.0106029 -0.784521 0.285367 
0.0400853 -0.785438 0.317958 
0.0721566 -0.791097 0.413846 
0.156846 -0.789509 0.533218 
0.0734702 -0.75461 0.466966 
0.0826739 -0.703763 0.484869 
0.134537 -0.67133 0.547677 
0.15599 -0.652567 0.552795 
0.184367 -0.625422 0.57383 
0.200786 -0.59348 0.540221 
0.28453 -0.510826 0.591323 
0.324971 -0.453582 0.547838 
0.389643 -0.357207 0.508805 
0.482923 -0.276868 0.502887 
0.406824 -0.287145 0.379609 
0.399853 -0.280606 0.328526 
0.382768 -0.235144 0.32774 
0.416399 -0.2162 0.385611 
0.380815 -0.19331 0.345623 
0.341986 -0.194608 0.265343 
0.328067 -0.184863 0.212548 
0.317123 -0.16804 0.171042 
0.327147 -0.159026 0.179286 
0.336509 -0.154801 0.137017 
0.34502 -0.149441 0.101813 
0.355855 -0.144936 0.0612397 
0.366977 -0.139931 0.0169602 
0.370857 -0.132118 -0.00833231 
0.38757 -0.114172 -0.0601984 
0.354338 -0.0545966 -0.0957568 
0.33327 -0.000607054 -0.13515 
0.326645 0.0530237 -0.186624 
nan nan nan
0.34475 0.13905 -0.256131 
0.342595 0.101716 -0.274886 
0.385698 0.135336 -0.318733 
0.386728 0.0843931 -0.329265 
0.412019 0.0844247 -0.347949 
0.465633 0.0574089 -0.368689 
0.485728 0.0277412 -0.367235 
0.490234 -0.00125492 -0.39327 
0.518687 -0.00769963 -0.418669 
0.526453 -0.0401348 -0.40985 
0.55796 -0.0545285 -0.414032 
0.571356 -0.0784714 -0.411073 
0.556229 -0.110457 -0.411209 
0.490345 -0.211758 -0.387672 
0.570581 -0.160932 -0.412668 
0.58141 -0.168885 -0.429396 
0.578943 -0.211678 -0.412735 
0.615414 -0.209956 -0.407989 
0.611912 -0.213998 -0.395367 
0.627561 -0.226664 -0.38375 
0.630787 -0.218388 -0.385068 
0.656927 -0.205238 -0.397948 
0.663935 -0.220093 -0.386295 
0.650444 -0.243892 -0.351749 
0.674472 -0.238155 -0.370901 
0.693787 -0.239221 -0.381322 
0.657391 -0.250213 -0.340374 
0.693766 -0.255499 -0.354925 
0.71554 -0.271178 -0.348324 
0.696876 -0.285993 -0.320609 
0.659955 -0.294001 -0.247769 
0.699283 -0.3382 -0.289882 
0.659292 -0.330053 -0.215321 
0.688574 -0.379764 -0.249337 
0.692976 -0.399978 -0.237338 
0.692129 -0.421313 -0.227415 
0.683027 -0.428102 -0.195446 
0.673589 -0.420459 -0.129335 
0.672606 -0.49961 -0.168494 
0.675675 -0.533451 -0.128043 
0.659094 -0.57334 -0.123155 
0.664939 -0.606289 -0.0977379 
0.646447 -0.637161 -0.0957939 
0.662745 -0.647264 -0.0485234 
0.623031 -0.66668 -0.0407134 
0.659842 -0.686859 0.0389139 
0.583385 -0.719562 0.032891 
0.599943 -0.738232 0.0801353 
0.557104 -0.761241 0.0782729 
0.562928 -0.7691 0.115024 
0.554584 -0.780308 0.129159 
0.562782 -0.793759 0.149418 
0.529397 -0.800237 0.130876 
0.582164 -0.797332 0.165967 
0.562003 -0.804792 0.155432 
0.594625 -0.809115 0.172144 
0.574848 -0.826411 0.152114 
0.55987 -0.839297 0.137258 
0.623099 -0.832248 0.175958 
0.589939 -0.848172 0.131774 
0.605644 -0.860042 0.127726 
0.603203 -0.857537 0.106347 
0.632897 -0.872866 0.0977955 
0.665755 -0.875816 0.114866 
0.64279 -0.872341 0.0772946 
0.671197 -0.878945 0.0902401 
0.70092 -0.879189 0.101802 
0.683976 -0.890795 0.0627727 
0.702875 -0.887404 0.0569329 
0.704636 -0.879103 0.0360502 
0.712411 -0.869542 0.0129427 
0.744696 -0.862086 0.0175855 
0.778826 -0.863162 0.028771 
0.738856 -0.853216 -0.0105799 
0.735601 -0.84827 -0.0294979 
0.736696 -0.841252 -0.0404685 
0.756027 -0.831711 -0.05152 
0.755563 -0.818281 -0.0723836 
0.813471 -0.820807 -0.0591722 
0.765135 -0.799401 -0.10326 
0.79028 -0.78924 -0.114123 
0.772689 -0.781239 -0.15031 
0.830217 -0.766973 -0.124234 
0.779307 -0.741876 -0.144995 
nan nan nan
0.891335 -0.729416 -0.0944113 
0.878618 -0.684072 -0.0765151 
0.881059 -0.687294 -0.0503265 
0.904656 -0.668321 0.00628517 
0.903157 -0.656186 0.0215161 
0.966454 -0.646126 0.0511852 
0.885969 -0.631935 0.0571677 
0.906953 -0.634488 0.066504 
0.879603 -0.611484 0.0828299 
0.911885 -0.58479 0.0678142 
1.0191 -0.562715 0.0532754 
0.87637 -0.529929 0.0767328 
0.911827 -0.5014 0.0313047 
0.889398 -0.485514 -0.00481319 
1.02809 -0.480117 -0.0590486 
0.930443 -0.430837 -0.0417495 
1.01163 -0.403862 -0.083894 
0.887581 -0.371596 -0.0381749 
0.898875 -0.341017 -0.0684633 
0.984855 -0.34841 -0.104272 
0.876191 -0.292483 -0.0882152 
0.883908 -0.266082 -0.0980391 
0.850252 -0.211379 -0.121006 
0.837745 -0.181017 -0.137722 
0.826086 -0.150609 -0.153357 
0.826173 -0.141755 -0.122933 
0.823377 -0.134893 -0.122275 
0.820664 -0.0978014 -0.113277 
0.823636 -0.0598423 -0.125109 
0.822798 -0.0984494 -0.0235671 
0.839254 -0.0199334 -0.0256787 
0.850328 0.0513118 -0.00684801 
nan nan nan
0.855287 0.0729955 0.117692 
0.83032 0.162622 0.091165 
0.852437 0.242717 0.154313 
0.855396 0.281592 0.187615 
0.820648 0.322009 0.201936 
0.804378 0.363196 0.246941 
0.779461 0.381743 0.264714 
0.748101 0.397251 0.257509 
0.745891 0.402302 0.288475 
0.73452 0.405735 0.317081 
0.676984 0.388235 0.341865 
0.710968 0.370612 0.36416 
0.660245 0.331173 0.341413 
0.706854 0.366075 0.367426 
0.709258 0.368558 0.37551 
0.700587 0.383737 0.385944 
0.703226 0.402508 0.4084 
0.711148 0.424347 0.414384 
0.745067 0.449984 0.432692 
0.758814 0.471213 0.445066 
0.733353 0.486374 0.443873 
0.731617 0.515417 0.45333 
0.739551 0.56008 0.487087 
0.722759 0.563714 0.479137 
0.70202 0.572925 0.473446 
0.702319 0.589543 0.485641 
0.709713 0.625491 0.516358 
0.686087 0.608918 0.492457 
0.658739 0.59348 0.463654 
0.636402 0.612225 0.476274 
0.629657 0.607025 0.472281 
nan nan nan
0.616879 0.5953 0.456402 
0.599426 0.5789 0.429488 
nan nan nan
0.610357 0.599239 0.467781 
nan nan nan
0.570687 0.596774 0.46515 
0.54965 0.5817 0.441226 
0.560866 0.63409 0.505909 
0.500426 0.575189 0.441442 
0.491549 0.597825 0.480898 
nan nan nan
0.466221 0.634716 0.541148 
0.422892 0.593176 0.522062 
0.383033 0.546398 0.473565 
0.391358 0.543328 0.519254 
0.432283 0.573585 0.6004 
0.49912 0.611536 0.72981 
0.426731 0.5297 0.649738 
0.40576 0.482187 0.649011 
0.498133 0.587334 0.77957 
0.460084 0.470777 0.736811 
0.462092 0.419002 0.762813 
0.446694 0.337247 0.804861 
0.535605 0.322506 0.906486 
0.349459 0.277266 0.881241 
0.32365 0.252366 0.951959 
0.301659 0.233316 0.985831 
0.240996 0.190227 1.01605 
0.219482 0.161541 1.03772 
0.215847 0.155428 1.03072 
0.162478 0.133498 1.0419 
0.140181 0.125068 1.04225 
0.131922 0.117889 1.03623 
0.147029 0.108471 1.01314 
0.0707998 0.101395 1.05576 
0.0894093 0.104813 1.03428 
0.0690049 0.106154 1.02851 
0.0487073 0.107475 1.02551 
0.0446668 0.108821 1.01486 
nan nan nan
-0.00424012 0.112714 1.01691 
-0.00134511 0.113265 0.990488 
-0.0300846 0.117234 0.98973 
0.0102266 0.107574 0.929268 
-0.0751196 0.121875 0.974246 
-0.0907951 0.142101 0.943271 
-0.0998729 0.155899 0.921855 
-0.138018 0.18387 0.899577 
-0.0905196 0.178077 0.859844 
-0.0427284 0.161078 0.812526 
-0.132959 0.221226 0.85481 
-0.13279 0.247111 0.845662 
-0.133331 0.250387 0.810986 
-0.0828373 0.22657 0.728907 
-0.189035 0.301785 0.780242 
-0.121885 0.282413 0.717883 
-0.0669876 0.256253 0.653208 
-0.173814 0.328437 0.654788 
-0.167062 0.339558 0.611659 
-0.197579 0.375175 0.618927 
-0.241788 0.407726 0.605085 
-0.1665 0.37586 0.557091 
-0.207988 0.454337 0.578943 
-0.186381 0.453443 0.570291 
-0.127758 0.434142 0.5492 
-0.110372 0.450582 0.559958 
-0.0715053 0.4713 0.549566 
-0.0689684 0.516303 0.537249 
-0.0463102 0.541694 0.507087 
-0.00298495 0.512315 0.482962 
-0.0268713 0.551833 0.49998 
-0.00920891 0.57203 0.502001 
0.0385585 0.50114 0.393821 
-0.0953802 0.577615 0.465963 
-0.0249914 0.502361 0.336803 
-0.150193 0.579087 0.397405 
-0.175571 0.584493 0.379333 
-0.129119 0.569587 0.291144 
-0.240417 0.611215 0.368721 
-0.251046 0.608872 0.342216 
-0.272107 0.610816 0.328621 
-0.291116 0.608898 0.315079 
-0.307619 0.603884 0.300652 
-0.33342 0.617746 0.305584 
-0.294269 0.57531 0.275584 
-0.305912 0.590027 0.28467 
-0.30714 0.591108 0.27274 
-0.308957 0.58797 0.253863 
nan nan nan
-0.338762 0.617906 0.241402 
-0.363448 0.639854 0.226551 
-0.366879 0.635901 0.201021 
-0.379696 0.638994 0.182592 
-0.402488 0.652413 0.176434 
-0.378733 0.636944 0.151104 
-0.368684 0.63637 0.138809 
-0.358278 0.637736 0.125959 
-0.345188 0.648882 0.106854 
-0.317134 0.637317 0.0605184 
-0.304176 0.632705 0.034747 
-0.289813 0.658111 -0.00825247 
-0.279331 0.624015 -0.0182809 
-0.250168 0.603548 -0.0429471 
-0.240532 0.651454 -0.146934 
-0.177391 0.557727 -0.1805 
-0.139272 0.49301 -0.173405 
-0.117932 0.486872 -0.21763 
-0.0981375 0.469064 -0.241839 
-0.0944689 0.431167 -0.251983 
-0.0615532 0.427031 -0.267215 
-0.0768212 0.478172 -0.320008 
-0.0626036 0.467028 -0.347617 
-0.0907824 0.486929 -0.412843 
-0.0992797 0.498799 -0.433938 
-0.113011 0.464385 -0.426289 
-0.144214 0.455478 -0.442353 
-0.158072 0.435483 -0.440622 
-0.170166 0.405636 -0.430621 
-0.189983 0.406793 -0.409659 
-0.234033 0.482871 -0.464909 
-0.227912 0.375852 -0.37883 
-0.252058 0.33377 -0.392116 
-0.28459 0.324212 -0.373203 
-0.323927 0.35312 -0.388575 
-0.327018 0.33875 -0.37604 
-0.305872 0.281925 -0.341358 
-0.340584 0.340189 -0.348012 
-0.35258 0.32564 -0.290215 
-0.411861 0.439367 -0.310998 
-0.414885 0.374606 -0.20607 
-0.437678 0.423983 -0.240402 
-0.46411 0.433652 -0.200897 
-0.500798 0.491209 -0.202713 
-0.485366 0.461336 -0.152241 
-0.507279 0.476389 -0.13692 
-0.536042 0.517614 -0.121616 
-0.533185 0.485536 -0.0456687 
nan nan nan
-0.554457 0.498429 -0.000313958 
-0.541053 0.478187 0.0303605 
-0.547123 0.482576 0.0573077 
-0.553894 0.470687 0.0542741 
-0.560923 0.467178 0.0602059 
-0.580651 0.466976 0.0742623 
-0.601243 0.447871 0.0662998 
-0.610938 0.484507 0.1112 
-0.628297 0.502907 0.13388 
-0.628523 0.498522 0.134517 
-0.633687 0.506251 0.146266 
-0.648374 0.537162 0.166763 
-0.645125 0.509688 0.168042 
-0.64564 0.507044 0.172527 
-0.650639 0.515813 0.190378 
-0.649672 0.493478 0.186399 
-0.651885 0.478201 0.187184 
-0.662774 0.463353 0.201779 
-0.674946 0.467029 0.22422 
-0.676291 0.419335 0.219078 
-0.679383 0.428093 0.232387 
-0.683408 0.436969 0.254752 
-0.69295 0.38153 0.226946 
-0.665083 0.390793 0.283669 
-0.687535 0.370855 0.30105 
-0.649332 0.375281 0.319445 
-0.64804 0.380598 0.341394 
nan nan nan
-0.614078 0.365165 0.390599 
-0.624941 0.344619 0.408077 
-0.630871 0.346903 0.401491 
-0.66495 0.321726 0.404347 
nan nan nan
-0.720027 0.303515 0.405229 
-0.763978 0.301806 0.396702 
-0.850867 0.243079 0.40564 
-0.888974 0.207092 0.43649 
nan nan nan
-0.915144 0.132774 0.459781 
-0.95434 0.0678814 0.513722 
-1.01528 0.0102078 0.585471 
nan nan nan
-0.989214 -0.0862841 0.608943 
-0.961938 -0.143897 0.669006 
-1.08573 -0.268888 0.769494 
-0.998971 -0.265011 0.759535 
-0.9055 -0.291254 0.767554 
-0.85571 -0.311178 0.734821 
-0.948471 -0.349675 0.716542 
-0.872918 -0.34224 0.642921 
-0.906319 -0.391126 0.609721 
-0.875546 -0.370011 0.560421 
-0.817226 -0.35388 0.542272 
-0.823618 -0.361779 0.539054 
nan nan nan
-0.681528 -0.26388 0.469045 
-0.743324 -0.30611 0.500655 
-0.625138 -0.23001 0.424933 
-0.612397 -0.223361 0.418042 
-0.545115 -0.188941 0.369781 
-0.569587 -0.161664 0.415726 
-0.530024 -0.12299 0.398565 
-0.531525 -0.125796 0.390691 
-0.560938 -0.124977 0.426817 
nan nan nan
-0.523698 -0.0853804 0.437814 
-0.502408 -0.0471417 0.430523 
-0.502141 -0.0327177 0.453875 
-0.487548 -0.0686142 0.49135 
-0.469831 -0.0723603 0.521514 
-0.466838 -0.0222441 0.531265 
-0.464274 -0.00484035 0.547849 
-0.454021 -0.0169041 0.563829 
-0.458472 0.00648826 0.576047 
-0.450703 0.0303803 0.586746 
-0.453516 0.0591689 0.601106 
-0.433745 0.0735023 0.60028 
-0.442157 0.107033 0.590598 
-0.427736 0.10995 0.610879 
nan nan nan
-0.355205 0.0625037 0.626676 
-0.380114 0.108606 0.630566 
-0.393882 0.146597 0.630455 
-0.370734 0.120529 0.617478 
-0.36146 0.110305 0.573594 
-0.365384 0.119968 0.535001 
-0.384318 0.13563 0.48558 
-0.434155 0.177721 0.474974 
-0.442515 0.208612 0.472735 
-0.444818 0.181309 0.462442 
-0.448712 0.174055 0.454386 
-0.452112 0.185411 0.43476 
-0.459617 0.168456 0.428663 
-0.46209 0.168277 0.421959 
-0.477642 0.147593 0.417653 
-0.460604 0.18119 0.394374 
-0.478475 0.161666 0.398821 
-0.474637 0.17508 0.382822 
-0.486048 0.163673 0.381072 
-0.48581 0.171313 0.361364 
-0.47932 0.184149 0.337524 
-0.502132 0.161328 0.335079 
-0.498901 0.164596 0.304734 
nan nan nan
-0.53807 0.134225 0.283613 
-0.54214 0.132518 0.258664 
-0.537554 0.142039 0.233981 
-0.55767 0.118423 0.229896 
-0.554754 0.107941 0.207496 
-0.571239 0.0907586 0.185343 
-0.601239 0.0715944 0.156748 
-0.631433 0.0507535 0.142648 
-0.643281 0.0417619 0.131199 
-0.675128 0.0097536 0.100535 
-0.693103 -0.0331649 0.0786272 
-0.685491 -0.0689341 0.0833633 
-0.652196 -0.139927 0.0705238 
-0.718312 -0.0868574 -0.00586011 
-0.689138 -0.121985 -0.0264614 
-0.584959 -0.211146 0.000329833 
-0.657335 -0.150566 -0.057835 
-0.655438 -0.167919 -0.0862002 
-0.629886 -0.190992 -0.087682 
-0.628309 -0.184542 -0.0917803 
-0.655935 -0.160462 -0.110463 
-0.646449 -0.17011 -0.0993623 
-0.622594 -0.198618 -0.0696955 
-0.671276 -0.168908 -0.0895731 
-0.706581 -0.140035 -0.109531 
-0.661692 -0.192493 -0.0711232 
