-0.902034 -0.383824 -0.126484 
-0.8902 -0.395109 -0.11098 
-0.786052 -0.40881 -0.0844399 
-0.87131 -0.434121 -0.0802866 
-0.844163 -0.459098 -0.097042 
-0.765104 -0.471873 -0.0856369 
-0.822699 -0.501246 -0.114066 
-0.803646 -0.511409 -0.123071 
-0.782233 -0.522025 -0.12478 
-0.787198 -0.536394 -0.135562 
-0.760519 -0.529 -0.170657 
-0.629443 -0.535763 -0.152792 
-0.65792 -0.541297 -0.221883 
-0.635842 -0.54706 -0.228506 
-0.629215 -0.551123 -0.238504 
-0.60678 -0.593966 -0.247401 
-0.588599 -0.593893 -0.259866 
-0.575542 -0.60902 -0.277437 
-0.548184 -0.590698 -0.273835 
-0.549433 -0.608751 -0.290929 
-0.522878 -0.577585 -0.280336 
-0.507896 -0.58478 -0.303521 
-0.485351 -0.591005 -0.318798 
-0.503985 -0.599922 -0.348 
-0.511102 -0.60719 -0.378086 
-0.519415 -0.599754 -0.413785 
-0.496628 -0.556289 -0.400172 
-0.527407 -0.570673 -0.429579 
nan nan nan
-0.553553 -0.55684 -0.44963 
-0.523883 -0.510155 -0.422791 
-0.512649 -0.481719 -0.408074 
-0.542382 -0.495805 -0.429904 
-0.539621 -0.477765 -0.424893 
-0.53604 -0.434271 -0.417612 
-0.574008 -0.466135 -0.434119 
-0.607942 -0.484135 -0.45598 
-0.575046 -0.407977 -0.416758 
-0.638128 -0.452666 -0.440989 
-0.600057 -0.370805 -0.382957 
-0.616539 -0.405888 -0.423286 
nan nan nan
-0.606273 -0.407167 -0.461309 
-0.562514 -0.357719 -0.461386 
-0.581073 -0.376769 -0.519786 
-0.560837 -0.351958 -0.533685 
nan nan nan
-0.520441 -0.336163 -0.566929 
-0.534467 -0.350913 -0.639339 
-0.469926 -0.286032 -0.625741 
-0.448165 -0.253613 -0.643935 
-0.428196 -0.218285 -0.647173 
-0.430077 -0.176599 -0.636034 
-0.426534 -0.161079 -0.599558 
-0.436022 -0.145648 -0.642536 
-0.436711 -0.120668 -0.614877 
-0.428025 -0.0996073 -0.605729 
-0.447743 -0.050349 -0.641964 
-0.394313 -0.0530146 -0.597265 
-0.385535 -0.0396772 -0.608413 
-0.365159 -0.0194879 -0.608328 
-0.354143 -0.00152416 -0.621922 
-0.341553 0.0216867 -0.643094 
-0.340226 0.030761 -0.672298 
-0.342468 0.0394255 -0.673909 
-0.342606 0.0440572 -0.677603 
-0.354788 0.0533873 -0.723764 
-0.333196 0.0302047 -0.722359 
-0.273823 0.0125325 -0.667687 
-0.295399 0.0138017 -0.745196 
-0.272906 0.00389707 -0.740713 
-0.257243 -0.00177631 -0.73656 
-0.244293 -0.00978165 -0.758553 
-0.211634 -0.0205435 -0.742146 
-0.202125 -0.0212683 -0.74954 
-0.201287 -0.0290376 -0.761018 
-0.17627 -0.0241608 -0.720783 
-0.159578 -0.0206535 -0.718842 
-0.145341 -0.00709678 -0.743518 
-0.0899498 -0.0125058 -0.676282 
-0.0644633 0.000721512 -0.722714 
-0.0233265 0.000380682 -0.734076 
-0.00443641 0.0133466 -0.751442 
0.0301148 -0.000707766 -0.754114 
0.0745489 -0.000583238 -0.76174 
0.114921 -0.0100586 -0.766054 
0.186679 -0.0426218 -0.825883 
0.183544 -0.0256953 -0.731351 
0.196266 -0.080865 -0.72731 
0.194925 -0.111202 -0.72786 
0.215202 -0.138841 -0.700881 
nan nan nan
0.272549 -0.150422 -0.775954 
0.354173 -0.19265 -0.897244 
0.323063 -0.173121 -0.725509 
0.291201 -0.181074 -0.803622 
0.2665 -0.176544 -0.746844 
0.22684 -0.182045 -0.776362 
0.213905 -0.189658 -0.794176 
0.179264 -0.167027 -0.745258 
0.166076 -0.173986 -0.76994 
0.156836 -0.201032 -0.788925 
0.142868 -0.232875 -0.835304 
0.0699282 -0.208881 -0.813118 
0.105009 -0.287861 -0.92921 
0.0379304 -0.262776 -0.817108 
0.0145617 -0.253253 -0.783832 
0.0248977 -0.293645 -0.827841 
0.00604551 -0.275909 -0.77448 
-0.0159232 -0.322513 -0.79224 
-0.0353854 -0.295137 -0.721655 
-0.0500614 -0.290563 -0.668118 
-0.0718704 -0.268025 -0.621777 
-0.0706226 -0.322382 -0.622986 
-0.0801076 -0.423091 -0.676239 
-0.0949437 -0.428838 -0.638098 
-0.105151 -0.350166 -0.53111 
-0.109382 -0.40712 -0.600756 
-0.10777 -0.450369 -0.653909 
nan nan nan
-0.170251 -0.447691 -0.600756 
-0.199423 -0.460783 -0.591098 
-0.205087 -0.434731 -0.522204 
-0.20871 -0.483643 -0.53115 
nan nan nan
-0.203062 -0.516978 -0.511801 
-0.185306 -0.4741 -0.425146 
-0.146575 -0.520488 -0.42237 
nan nan nan
-0.0878414 -0.587923 -0.454249 
-0.0737313 -0.602335 -0.42221 
-0.0231782 -0.700962 -0.509557 
-0.00729281 -0.592683 -0.389706 
-0.00633029 -0.700264 -0.510817 
0.0458103 -0.577683 -0.398979 
0.0602728 -0.64256 -0.39072 
nan nan nan
0.175927 -0.676877 -0.369096 
nan nan nan
0.180534 -0.795645 -0.356646 
0.18787 -0.809953 -0.351387 
0.228026 -0.786888 -0.298954 
0.141624 -0.88108 -0.25337 
0.204281 -0.842512 -0.24372 
0.225185 -0.841376 -0.213787 
0.30267 -0.773725 -0.244899 
0.31342 -0.80708 -0.19309 
0.264183 -0.841532 -0.136008 
0.379632 -0.83159 -0.168232 
0.403378 -0.844637 -0.143308 
0.427473 -0.846799 -0.106266 
0.48368 -0.863052 -0.0824979 
0.467861 -0.816529 -0.0498119 
0.467985 -0.780655 -0.0223849 
0.479419 -0.782993 0.0038526 
0.514013 -0.867076 0.0200265 
0.505095 -0.82151 0.0460437 
0.529249 -0.896974 0.0440392 
0.523398 -0.878819 0.0545069 
0.501945 -0.862202 0.0716375 
0.489474 -0.849562 0.110947 
0.458365 -0.793334 0.14474 
0.447723 -0.800549 0.169975 
0.453602 -0.866297 0.19893 
0.437176 -0.870879 0.222354 
0.422153 -0.901021 0.26297 
0.397856 -0.907078 0.29945 
0.36553 -0.891367 0.32589 
0.378987 -0.939918 0.326587 
0.358281 -0.911427 0.339627 
0.335025 -0.905624 0.350998 
0.294195 -0.877911 0.367398 
0.282753 -0.914249 0.357547 
0.25866 -0.909925 0.360293 
0.212178 -0.877015 0.386246 
0.128774 -0.891555 0.387535 
0.151686 -0.846471 0.381622 
0.0887066 -0.783044 0.414751 
0.0435733 -0.696076 0.459262 
0.0292559 -0.767866 0.380846 
0.0202292 -0.775741 0.300984 
0.0150112 -0.690568 0.286509 
0.0393816 -0.660045 0.279922 
0.0459004 -0.607965 0.270061 
0.081168 -0.586401 0.238727 
0.103172 -0.478331 0.259201 
0.141133 -0.419595 0.275773 
0.16914 -0.325992 0.300082 
0.202253 -0.197772 0.357024 
0.247407 -0.250429 0.201677 
0.272924 -0.245739 0.170722 
0.236836 -0.194752 0.170103 
0.224661 -0.128456 0.242783 
0.213692 -0.114038 0.189706 
0.236396 -0.127925 0.109902 
0.230879 -0.123338 0.058411 
0.232904 -0.106556 0.000874671 
0.249947 -0.0633715 0.0378555 
0.270081 -0.0611723 0.0109867 
0.296035 -0.0589853 -0.0125047 
0.32673 -0.0589194 -0.0434356 
0.358261 -0.0473663 -0.0766647 
0.392006 -0.0422274 -0.0949043 
0.43006 -0.0203263 -0.12512 
0.407312 0.0388293 -0.19029 
0.408206 0.0853047 -0.243506 
0.413726 0.125213 -0.312514 
nan nan nan
0.430007 0.208253 -0.401032 
0.446798 0.181581 -0.425769 
0.50112 0.197742 -0.469302 
0.504026 0.130232 -0.477697 
0.53475 0.119236 -0.501931 
0.603618 0.0957283 -0.477863 
0.629458 0.0754825 -0.454172 
0.655654 0.0301783 -0.462002 
0.679553 0.00651314 -0.48791 
0.690619 -0.038615 -0.457484 
0.72394 -0.0442266 -0.434426 
0.735354 -0.0607 -0.414128 
0.723061 -0.10199 -0.414523 
0.645389 -0.218128 -0.436644 
0.713656 -0.159293 -0.428774 
0.721994 -0.167024 -0.449989 
0.738352 -0.21014 -0.429099 
0.766975 -0.207689 -0.415399 
0.76756 -0.216732 -0.406511 
0.78012 -0.224439 -0.385711 
0.786204 -0.221991 -0.379071 
0.809245 -0.190222 -0.366167 
0.811915 -0.210889 -0.34384 
0.809929 -0.257471 -0.330318 
0.820051 -0.226726 -0.320907 
0.847959 -0.212587 -0.315783 
0.824226 -0.267458 -0.307252 
0.822536 -0.233811 -0.286855 
0.812776 -0.220717 -0.264535 
0.812805 -0.261451 -0.249115 
0.848004 -0.343755 -0.239315 
0.784737 -0.293204 -0.198746 
0.829336 -0.370868 -0.191682 
0.769867 -0.318666 -0.155748 
0.757449 -0.321644 -0.12197 
0.738398 -0.313033 -0.105922 
0.754698 -0.346953 -0.0864848 
0.790884 -0.409062 -0.0739855 
0.73589 -0.353202 0.00441216 
0.74545 -0.386066 0.0666985 
0.733258 -0.399832 0.113651 
0.726977 -0.434319 0.166887 
0.711524 -0.454764 0.194126 
0.728791 -0.471044 0.25065 
0.683372 -0.493874 0.262778 
0.729077 -0.49786 0.351317 
0.618658 -0.52905 0.356247 
0.624329 -0.546255 0.415675 
0.561853 -0.564708 0.404736 
0.563992 -0.570688 0.448911 
0.549316 -0.578612 0.47108 
0.552656 -0.584693 0.493027 
0.505415 -0.596991 0.481151 
0.571025 -0.591622 0.536397 
0.545462 -0.598543 0.523094 
0.581885 -0.598364 0.552508 
0.560841 -0.616235 0.534202 
0.534644 -0.627783 0.521057 
0.618641 -0.616593 0.584537 
0.571649 -0.63632 0.506944 
0.586868 -0.646627 0.507688 
0.588108 -0.656197 0.472336 
0.624583 -0.67594 0.481732 
0.66906 -0.679089 0.518067 
0.632923 -0.692648 0.472475 
0.675468 -0.704098 0.489032 
0.712882 -0.688996 0.502572 
0.678175 -0.711926 0.450445 
0.700624 -0.703538 0.439206 
0.703662 -0.702357 0.404855 
0.707974 -0.698733 0.379446 
0.757321 -0.696326 0.380696 
0.794569 -0.695834 0.385187 
0.744868 -0.696994 0.33884 
0.742722 -0.694283 0.313741 
0.743028 -0.692652 0.301647 
0.762331 -0.683939 0.282739 
0.752526 -0.667834 0.251419 
0.82786 -0.690326 0.270282 
0.762845 -0.64539 0.226312 
0.786605 -0.636834 0.214706 
0.752315 -0.624801 0.178536 
0.826122 -0.617925 0.1984 
0.779772 -0.580626 0.163022 
nan nan nan
0.904757 -0.613386 0.168574 
0.903358 -0.537472 0.189856 
0.913102 -0.531638 0.206906 
0.960027 -0.514539 0.23509 
0.97084 -0.500754 0.247969 
1.05592 -0.510605 0.246444 
0.980029 -0.439127 0.294831 
0.999283 -0.455228 0.291083 
0.993217 -0.4147 0.302388 
1.02784 -0.412848 0.252928 
1.11205 -0.454062 0.189045 
0.982205 -0.322651 0.255241 
1.01199 -0.334253 0.187468 
0.968324 -0.342181 0.156844 
1.06303 -0.407093 0.0650614 
0.98891 -0.318701 0.0937687 
1.05638 -0.337451 0.0279031 
0.958188 -0.226511 0.0847066 
0.967665 -0.233082 0.0155717 
1.04445 -0.289332 -0.0311737 
0.953939 -0.20678 -0.035129 
0.946637 -0.177324 -0.0572658 
0.902814 -0.123341 -0.074176 
0.875349 -0.0923496 -0.0939076 
0.856892 -0.0517123 -0.11547 
0.839421 -0.0510983 -0.0874441 
0.831089 -0.0441868 -0.0887988 
0.821407 -0.00552243 -0.0864582 
0.824684 0.0502556 -0.0989685 
0.783576 0.0107743 0.00182324 
0.794532 0.0718611 0.0157946 
0.79789 0.135194 0.0572292 
nan nan nan
0.777704 0.163567 0.186256 
0.752745 0.190737 0.151489 
0.743019 0.300318 0.223403 
0.726231 0.321395 0.259319 
0.673088 0.317568 0.292932 
0.629909 0.332466 0.330141 
0.616707 0.332275 0.358407 
0.629444 0.31203 0.396576 
0.613448 0.345224 0.408018 
0.60063 0.351796 0.434646 
0.579715 0.337449 0.472544 
0.622953 0.342167 0.484322 
0.621543 0.265611 0.512807 
0.626883 0.34209 0.492786 
0.625369 0.350564 0.498693 
0.618081 0.371948 0.506709 
0.6149 0.423265 0.509123 
0.626568 0.447328 0.507836 
0.666698 0.479519 0.507965 
0.688493 0.509695 0.499891 
0.67509 0.498473 0.473702 
0.681556 0.529647 0.471272 
0.69843 0.588223 0.506582 
0.672051 0.584402 0.496364 
0.649505 0.584007 0.496972 
0.647338 0.607415 0.508882 
0.644672 0.648314 0.526812 
0.622376 0.622772 0.518574 
0.578098 0.60248 0.492677 
0.562745 0.628569 0.490744 
0.567783 0.626753 0.486822 
nan nan nan
0.545282 0.609803 0.474878 
0.530498 0.579721 0.442683 
nan nan nan
0.534618 0.618357 0.485021 
nan nan nan
0.491493 0.609182 0.482817 
0.471031 0.582337 0.465274 
0.471273 0.663314 0.52619 
0.414467 0.571235 0.442367 
0.374197 0.605018 0.46961 
nan nan nan
0.356256 0.663379 0.530667 
0.318002 0.617811 0.513547 
0.268159 0.53847 0.471481 
0.265106 0.540831 0.514357 
0.301118 0.629287 0.609942 
0.340959 0.696929 0.726734 
0.253702 0.580875 0.641128 
0.237738 0.527649 0.657292 
0.315881 0.688443 0.787109 
0.294765 0.55262 0.778716 
0.310824 0.522277 0.821447 
0.31412 0.464384 0.888967 
0.358504 0.464939 0.974921 
0.256711 0.350806 0.908765 
0.257915 0.263449 0.927872 
0.224515 0.209267 0.913918 
0.172447 0.158983 0.912285 
0.164134 0.108207 0.927945 
0.166418 0.0871244 0.914793 
0.109429 0.0752223 0.963602 
0.0815914 0.068782 0.968989 
0.0802058 0.0547585 0.958495 
0.0875609 0.0438716 0.926839 
0.00521231 0.0618538 1.00372 
0.0262579 0.0605741 0.971286 
-0.00481108 0.0724128 0.971416 
-0.0184573 0.0790744 0.973341 
-0.0226655 0.0822544 0.964436 
nan nan nan
-0.0746586 0.109892 0.984192 
-0.0769221 0.110381 0.954169 
-0.115752 0.134244 0.960586 
-0.0807293 0.0969108 0.879339 
-0.163103 0.149559 0.9643 
-0.181027 0.168031 0.933775 
-0.194251 0.180849 0.89577 
-0.266636 0.187715 0.878003 
-0.203906 0.210809 0.830343 
-0.144302 0.189648 0.771252 
-0.263126 0.232596 0.833461 
-0.264744 0.264395 0.82145 
-0.281302 0.239034 0.774811 
-0.250919 0.205 0.688 
-0.369076 0.303214 0.766899 
-0.306771 0.276347 0.679655 
-0.251101 0.242106 0.603266 
-0.363585 0.348724 0.632695 
-0.341555 0.355666 0.570411 
-0.38267 0.388796 0.580116 
-0.424604 0.439627 0.559227 
-0.338903 0.38604 0.499948 
-0.356454 0.485384 0.528571 
-0.33304 0.485651 0.520574 
-0.271646 0.473532 0.536511 
-0.255913 0.486396 0.52512 
-0.208984 0.501708 0.496517 
-0.190228 0.502116 0.43963 
-0.157296 0.520422 0.416223 
-0.119995 0.582484 0.473344 
-0.108741 0.530015 0.413447 
-0.0860969 0.533454 0.410961 
-0.0998066 0.682132 0.495215 
-0.200213 0.533381 0.379344 
-0.200827 0.71739 0.441579 
-0.270909 0.59684 0.353225 
-0.302694 0.614324 0.329389 
-0.295084 0.726242 0.331719 
-0.39208 0.604679 0.308062 
-0.394389 0.621375 0.295641 
-0.401507 0.626904 0.261089 
-0.41505 0.627977 0.239195 
-0.427729 0.629186 0.220478 
-0.471719 0.635767 0.216813 
-0.403 0.658294 0.200593 
-0.419526 0.636003 0.202966 
-0.414039 0.638701 0.185349 
-0.398232 0.647432 0.166156 
nan nan nan
-0.442213 0.63327 0.13707 
-0.46611 0.639691 0.110504 
-0.462698 0.63438 0.0810524 
-0.469467 0.636165 0.0557596 
-0.501505 0.668081 0.0471566 
-0.45788 0.632414 0.0213301 
-0.446163 0.633484 0.00848512 
-0.432478 0.639553 -0.00956318 
-0.410824 0.642438 -0.0198826 
-0.383422 0.653935 -0.0779726 
-0.349147 0.595851 -0.0970849 
-0.333475 0.648445 -0.144535 
-0.318232 0.586418 -0.146478 
-0.300758 0.570894 -0.173594 
-0.269484 0.649547 -0.292562 
-0.219542 0.54411 -0.315782 
-0.194167 0.447941 -0.296313 
-0.171431 0.446712 -0.332089 
-0.15289 0.417697 -0.350265 
-0.134726 0.376953 -0.384516 
-0.0962967 0.355364 -0.397063 
-0.103227 0.423938 -0.472215 
-0.0639671 0.372941 -0.488006 
-0.0824052 0.413813 -0.563444 
-0.0829631 0.431122 -0.599359 
-0.0868342 0.393282 -0.578221 
-0.129738 0.407987 -0.606998 
-0.149465 0.395213 -0.600718 
-0.170823 0.352078 -0.590843 
-0.201723 0.353948 -0.576915 
-0.236178 0.446228 -0.644786 
-0.262189 0.336317 -0.542821 
-0.293949 0.303937 -0.540863 
-0.323145 0.291673 -0.503579 
-0.359266 0.334927 -0.512251 
-0.364043 0.320448 -0.497521 
-0.342456 0.255178 -0.459741 
-0.372063 0.318356 -0.467784 
-0.399092 0.289985 -0.391044 
-0.449657 0.426036 -0.450532 
-0.474485 0.366725 -0.314204 
-0.489188 0.406941 -0.345813 
-0.510979 0.410292 -0.32169 
-0.522513 0.478159 -0.342217 
-0.503548 0.451769 -0.300029 
-0.536378 0.482165 -0.288437 
-0.554597 0.54518 -0.293508 
-0.574885 0.537424 -0.213516 
nan nan nan
-0.609515 0.576133 -0.174553 
-0.60067 0.528962 -0.130705 
-0.610816 0.528297 -0.0976328 
-0.628226 0.52317 -0.115237 
-0.642158 0.514873 -0.109614 
-0.658183 0.509558 -0.100771 
-0.685998 0.490878 -0.13047 
-0.70032 0.518321 -0.071516 
-0.725511 0.536231 -0.0312047 
-0.728429 0.529123 -0.0288276 
-0.738473 0.53374 -0.0141339 
-0.769064 0.562387 0.0101626 
-0.750479 0.534059 0.0168139 
-0.752133 0.528635 0.0245767 
-0.759811 0.536421 0.052371 
-0.754343 0.505148 0.0455223 
-0.741622 0.488825 0.0305719 
-0.742338 0.464633 0.0459101 
-0.757285 0.464858 0.0745836 
-0.730098 0.409822 0.0543015 
-0.742385 0.409004 0.0690275 
-0.766015 0.408053 0.0983635 
-0.702518 0.353315 0.0575662 
-0.723832 0.369565 0.142854 
-0.689352 0.343501 0.134533 
-0.717899 0.363152 0.182875 
-0.693705 0.370882 0.2038 
nan nan nan
-0.692379 0.369662 0.276258 
-0.673644 0.343687 0.285413 
-0.665079 0.331282 0.276247 
-0.634813 0.294244 0.244978 
nan nan nan
-0.589821 0.253707 0.233286 
-0.569563 0.255598 0.174541 
-0.495949 0.164378 0.147645 
-0.470581 0.107941 0.145924 
nan nan nan
-0.447198 -0.014579 0.171005 
-0.419718 -0.119503 0.253227 
-0.411325 -0.222182 0.325499 
nan nan nan
-0.425011 -0.256237 0.408969 
-0.439583 -0.324198 0.482508 
-0.397361 -0.488188 0.674889 
-0.428951 -0.468103 0.573392 
-0.503008 -0.508165 0.46041 
-0.546275 -0.502543 0.465978 
-0.510948 -0.534482 0.57099 
-0.615229 -0.494246 0.489698 
-0.612774 -0.491682 0.591058 
-0.630708 -0.423808 0.593629 
-0.654995 -0.402364 0.57445 
-0.671865 -0.465842 0.635623 
nan nan nan
-0.779633 -0.31117 0.538387 
-0.751628 -0.406574 0.551959 
-0.81787 -0.294006 0.468319 
-0.828078 -0.271254 0.459503 
-0.890787 -0.204101 0.426634 
-0.855505 -0.19067 0.451378 
-0.880154 -0.12163 0.452602 
-0.884018 -0.148059 0.447578 
-0.849112 -0.161657 0.465266 
nan nan nan
-0.858762 -0.106017 0.485337 
-0.886462 -0.0438689 0.487865 
-0.851628 -0.0365393 0.483032 
-0.808191 -0.082258 0.52483 
-0.775022 -0.0733833 0.537144 
-0.79149 -0.00861439 0.55561 
-0.776992 0.00918714 0.573566 
-0.759713 0.00184858 0.585446 
-0.761381 0.00381496 0.611112 
-0.742977 0.0319585 0.6217 
-0.737 0.063264 0.635984 
-0.709609 0.0895921 0.638368 
-0.721139 0.134337 0.639513 
-0.714384 0.138652 0.662024 
nan nan nan
-0.60789 0.0913927 0.652145 
-0.631355 0.133726 0.659977 
-0.653122 0.186552 0.666584 
-0.620725 0.159931 0.636881 
-0.6084 0.155905 0.584689 
-0.613391 0.167554 0.549182 
-0.643611 0.182785 0.509147 
-0.711528 0.217185 0.506878 
-0.760253 0.257207 0.523421 
-0.741935 0.213252 0.500042 
-0.747288 0.201661 0.491874 
-0.780894 0.214576 0.474796 
-0.763691 0.185321 0.452932 
-0.768866 0.18391 0.445704 
-0.746657 0.152992 0.422873 
-0.809896 0.20161 0.429777 
-0.777016 0.174357 0.407939 
-0.796658 0.192857 0.400675 
-0.784248 0.17263 0.384871 
-0.807064 0.184106 0.367458 
-0.83392 0.202695 0.349233 
-0.815046 0.164453 0.338035 
-0.849143 0.169898 0.305437 
nan nan nan
-0.82732 0.118219 0.253466 
-0.840243 0.103368 0.236452 
-0.867761 0.128407 0.211189 
-0.85232 0.0833469 0.204018 
-0.876179 0.0680431 0.18769 
-0.875822 0.0363426 0.168155 
-0.883666 -0.00568735 0.142943 
-0.884588 -0.0429704 0.133836 
-0.89433 -0.069058 0.123629 
-0.916738 -0.14155 0.0784168 
-0.919203 -0.202994 0.0468736 
-0.865223 -0.228355 0.042192 
-0.805507 -0.26332 0.00113884 
-0.926687 -0.299536 -0.0441139 
-0.879729 -0.321668 -0.0893055 
-0.745622 -0.314404 -0.122222 
-0.854675 -0.337155 -0.142691 
-0.862198 -0.360084 -0.173602 
-0.816179 -0.356089 -0.193161 
-0.823219 -0.354143 -0.195919 
-0.87903 -0.356693 -0.200248 
-0.851161 -0.352822 -0.193581 
-0.778618 -0.345722 -0.178252 
-0.840562 -0.353221 -0.167442 
-0.911981 -0.367711 -0.165405 
-0.8032 -0.37267 -0.149904 
