1.0099 0.134076 0.392075 
1.03242 0.205636 0.341678 
1.18836 0.311147 0.373909 
1.04809 0.305977 0.252927 
1.02287 0.387109 0.269047 
1.09722 0.493579 0.378682 
0.891185 0.456083 0.248901 
0.846343 0.472399 0.219225 
0.826718 0.482828 0.254284 
0.786871 0.469385 0.333532 
0.753467 0.383489 0.4169 
0.807357 0.445335 0.615414 
0.645098 0.333755 0.550454 
0.623821 0.296179 0.541691 
0.586588 0.291636 0.543369 
0.583769 0.309584 0.59454 
0.547607 0.293967 0.614456 
0.549938 0.386743 0.656419 
0.536989 0.387687 0.665563 
0.56747 0.417698 0.687023 
0.528254 0.399704 0.701744 
0.48972 0.404112 0.732923 
0.47273 0.419485 0.728075 
0.489977 0.403157 0.743645 
0.51444 0.42268 0.776236 
0.490973 0.356576 0.80889 
0.408564 0.316042 0.835334 
0.408685 0.321749 0.883162 
nan nan nan
0.605759 0.343128 0.954172 
0.511239 0.155638 0.878622 
0.527207 0.136842 0.870047 
0.637123 0.086105 0.88434 
0.606672 0.0461651 0.846714 
0.613863 0.00974836 0.822093 
0.676196 -0.0762598 0.855764 
0.681924 -0.20876 0.96125 
0.706131 -0.145564 0.816539 
0.808428 -0.24 0.838049 
0.716098 -0.161294 0.696387 
0.712006 -0.161639 0.685802 
nan nan nan
0.643292 -0.159828 0.684893 
0.592197 -0.159703 0.641806 
0.570542 -0.151411 0.643152 
0.548386 -0.179866 0.605002 
nan nan nan
0.513405 -0.240842 0.59536 
0.531948 -0.391688 0.711641 
0.57249 -0.359553 0.562218 
0.600813 -0.411354 0.530018 
0.607267 -0.450178 0.505667 
0.582151 -0.504416 0.491751 
0.588964 -0.559018 0.490782 
0.606091 -0.547035 0.443664 
0.524404 -0.576976 0.415145 
0.421248 -0.582646 0.414452 
0.431321 -0.605948 0.3956 
0.386888 -0.619018 0.41641 
0.3788 -0.665212 0.428519 
0.370884 -0.697165 0.42792 
0.358035 -0.728094 0.428582 
0.35839 -0.79244 0.424438 
0.320773 -0.827653 0.437112 
0.297874 -0.883282 0.476125 
0.292571 -0.879259 0.488077 
0.284835 -0.833783 0.490104 
0.279184 -0.832746 0.544243 
0.336815 -0.921401 0.735536 
0.247671 -0.840763 0.669073 
0.21764 -0.828184 0.729902 
0.194363 -0.849199 0.773445 
0.148152 -0.780099 0.746561 
0.127154 -0.721681 0.794488 
0.0994391 -0.69616 0.774339 
0.071432 -0.651011 0.74892 
0.0428004 -0.701439 0.856069 
0.00723146 -0.734193 0.847019 
-0.0559419 -0.733206 0.808542 
-0.0837296 -0.826232 0.918724 
-0.147299 -0.79296 0.75487 
-0.210898 -0.802449 0.701487 
-0.266231 -0.762177 0.640575 
-0.290263 -0.783258 0.662597 
-0.330756 -0.736354 0.655662 
-0.391737 -0.700638 0.649924 
-0.460076 -0.738812 0.78054 
-0.462449 -0.582716 0.591605 
-0.454575 -0.525202 0.602151 
-0.438379 -0.478221 0.604337 
-0.433043 -0.428732 0.621061 
nan nan nan
-0.433633 -0.368423 0.631328 
-0.477091 -0.347625 0.748374 
-0.378604 -0.281851 0.660971 
-0.330119 -0.267624 0.694153 
-0.311797 -0.267096 0.714568 
-0.272157 -0.310148 0.766643 
-0.244129 -0.353863 0.82919 
-0.248117 -0.331162 0.776005 
-0.235774 -0.350204 0.781083 
-0.219913 -0.390807 0.745388 
-0.199882 -0.432068 0.70278 
-0.213629 -0.441298 0.533023 
-0.125056 -0.55424 0.534556 
-0.164422 -0.471958 0.540193 
-0.157921 -0.447979 0.547236 
-0.14303 -0.4586 0.537426 
-0.155949 -0.421099 0.519147 
-0.0940578 -0.418934 0.558273 
-0.0539937 -0.367096 0.591035 
-0.0158275 -0.310086 0.628116 
0.00182882 -0.296209 0.631042 
0.0707847 -0.308708 0.677906 
0.144807 -0.321399 0.826511 
0.185746 -0.257748 0.857266 
0.100551 -0.0365679 0.741054 
0.159738 -0.0393966 0.7779 
0.240357 -0.12099 0.839762 
nan nan nan
0.254541 0.00123251 0.701177 
0.274012 0.00815873 0.688335 
0.26933 0.0620402 0.627041 
0.299724 0.0796798 0.631979 
nan nan nan
0.304789 0.0863777 0.638414 
0.229903 0.137781 0.592355 
0.186108 0.179021 0.5873 
nan nan nan
0.134326 0.219739 0.608825 
0.121353 0.240317 0.581152 
0.145906 0.324564 0.663 
0.0485713 0.263701 0.541033 
0.0282846 0.313242 0.671568 
-0.0188567 0.264086 0.516916 
-0.064288 0.335396 0.493813 
nan nan nan
-0.121407 0.432333 0.36614 
nan nan nan
-0.169893 0.488331 0.287399 
-0.167687 0.490018 0.257042 
-0.17404 0.518651 0.232384 
-0.22256 0.673972 0.325543 
-0.178151 0.598547 0.213137 
-0.166141 0.617805 0.217338 
-0.130864 0.563902 0.178278 
-0.101064 0.588057 0.177576 
-0.0383373 0.719776 0.229043 
-0.082496 0.656968 0.134349 
-0.098779 0.640435 0.0856653 
-0.0989114 0.642762 0.0415568 
-0.0951908 0.613865 -0.00993939 
-0.0988498 0.620493 -0.062135 
-0.0903954 0.583865 -0.131516 
-0.0681908 0.556922 -0.178714 
-0.0332092 0.558978 -0.175631 
0.00534341 0.690607 -0.2143 
0.00301766 0.739195 -0.197473 
0.0293873 0.791611 -0.214815 
0.0952791 0.843333 -0.205275 
0.154406 0.885504 -0.202273 
0.264135 0.991156 -0.245786 
0.271992 1.06787 -0.216652 
0.228348 0.973089 -0.123537 
0.219371 0.970987 -0.103714 
0.208964 0.941602 -0.0493579 
0.232199 0.938047 -0.0198339 
0.348068 1.09608 -0.0244645 
0.323579 0.91989 0.0719114 
0.364879 0.938633 0.090487 
0.394562 0.928422 0.101424 
0.490744 0.973547 0.08935 
0.466065 0.831519 0.0412063 
0.448864 0.824811 0.0227087 
0.463662 0.814785 -0.0122916 
0.431869 0.645056 -0.0567614 
0.40291 0.580678 -0.0502394 
0.407108 0.525106 -0.0151417 
0.43033 0.491059 0.0980943 
0.369913 0.392486 0.101845 
0.348588 0.339689 0.126174 
0.326867 0.326484 0.128178 
0.282458 0.328374 0.128836 
0.236792 0.283579 0.119392 
0.179505 0.26494 0.120134 
0.135896 0.269981 0.0966205 
0.0753735 0.287794 0.066092 
0.0535488 0.261806 0.0203311 
-0.0669862 0.315245 -0.0242647 
0.00607509 0.224811 -0.0686541 
0.00815731 0.206974 -0.0714955 
-0.0204739 0.205587 -0.0549313 
-0.133835 0.180118 -0.0509658 
-0.136705 0.150627 -0.0270873 
-0.0704671 0.133866 0.0552595 
-0.0139044 0.0758069 0.0937983 
-0.0155514 0.0442617 0.126011 
-0.0567772 0.0263964 0.148866 
-0.0316805 -0.00801539 0.147781 
-0.0264139 -0.0247584 0.129253 
-0.0256866 -0.0519663 0.121864 
-0.0312785 -0.0883138 0.102532 
-0.0542935 -0.142058 0.067551 
-0.0732803 -0.164361 0.0597416 
-0.113541 -0.231539 0.0260531 
-0.154602 -0.297107 0.00975228 
-0.176114 -0.334344 0.00745477 
nan nan nan
-0.268239 -0.453416 0.0110379 
-0.332826 -0.506505 0.0440293 
-0.353438 -0.492702 0.0913329 
-0.422611 -0.517615 0.185328 
-0.457804 -0.499977 0.240513 
-0.496009 -0.41782 0.282265 
-0.529237 -0.394168 0.289846 
-0.570979 -0.276844 0.332096 
-0.56305 -0.152072 0.367446 
-0.591177 -0.0680615 0.387648 
-0.604022 -0.0157713 0.35261 
-0.619444 0.0592951 0.344255 
-0.620705 0.124791 0.362733 
-0.713593 0.169068 0.517072 
-0.647754 0.167359 0.413095 
-0.632916 0.190015 0.428422 
-0.692396 0.197678 0.447369 
-0.747093 0.185626 0.464853 
-0.787346 0.120796 0.469743 
-0.829773 0.102441 0.480818 
-0.844146 0.0709676 0.417305 
-0.861401 0.0949073 0.315567 
-0.914391 0.123799 0.318048 
-1.0493 0.187149 0.475014 
-0.963946 0.169715 0.322936 
-0.941465 0.178273 0.273372 
-1.07241 0.265906 0.42645 
-0.964677 0.262169 0.292043 
-0.91536 0.271633 0.214895 
-0.903709 0.310363 0.216373 
-0.940973 0.402515 0.304096 
-0.856248 0.391176 0.21151 
-0.935349 0.451285 0.361043 
-0.832783 0.43205 0.159336 
-0.816995 0.488183 0.0758652 
-0.807359 0.498628 0.0330047 
-0.775802 0.535099 0.107399 
-0.782601 0.600179 0.255609 
-0.689939 0.623565 0.135427 
-0.62495 0.68476 0.163852 
-0.514286 0.73014 0.152489 
-0.433391 0.800675 0.133064 
-0.374483 0.850902 0.0964072 
-0.365788 0.88706 0.0833237 
-0.303169 0.905419 0.0625512 
-0.352303 1.11227 0.0816705 
-0.233433 1.0544 0.0464917 
-0.239199 1.11784 0.0725913 
-0.193603 1.0864 0.00809828 
-0.182844 1.13128 -0.00369412 
-0.150109 1.16351 -0.0534514 
-0.0914577 1.22704 -0.0402933 
-0.0676852 1.2244 -0.0479397 
0.0980319 1.43939 0.0698737 
0.000413157 1.34383 -0.0096821 
0.00829088 1.45646 0.0815812 
-0.0540339 1.39481 0.0646255 
-0.0776446 1.35215 0.0476573 
-0.0797087 1.41903 0.106441 
-0.0762503 1.3034 0.0700477 
-0.0571204 1.2775 0.102163 
-0.0186752 1.21874 0.10276 
0.0236588 1.18652 0.131808 
0.0898503 1.22231 0.176413 
0.0556051 1.15791 0.140187 
0.0612395 1.14385 0.159655 
0.0594065 1.14482 0.203711 
0.0178316 1.09859 0.224563 
-0.000973928 1.11332 0.28792 
-0.032519 1.12916 0.330404 
-0.0601463 1.13724 0.357346 
-0.106794 1.19197 0.404913 
-0.177075 1.32125 0.476072 
-0.171096 1.08646 0.40608 
-0.172659 1.05875 0.425489 
-0.201892 1.0809 0.407587 
-0.285147 1.14943 0.379866 
-0.35023 1.15905 0.358679 
-0.413933 1.28378 0.397227 
-0.393724 1.11487 0.368371 
-0.423603 1.09121 0.370325 
-0.448443 0.98985 0.333988 
-0.555083 1.09094 0.336218 
-0.489437 0.960237 0.287332 
nan nan nan
-0.635345 1.01604 0.215076 
-0.611014 0.899077 0.149904 
-0.625102 0.946075 0.0983027 
-0.59446 0.944559 0.0373173 
-0.577084 0.913674 -0.0240664 
-0.581895 0.953405 -0.0999103 
-0.400103 0.816846 -0.101283 
-0.404461 0.822213 -0.125707 
-0.396254 0.753338 -0.119124 
-0.415582 0.689009 -0.0972799 
-0.497709 0.640435 -0.080491 
-0.399727 0.568021 -0.024371 
-0.435923 0.528094 0.00195311 
-0.464318 0.529312 0.0697562 
-0.514526 0.514782 0.196936 
-0.477489 0.455341 0.0821967 
-0.525132 0.420262 0.146835 
-0.506447 0.359781 -0.00283426 
-0.554751 0.306102 -0.0187825 
-0.620193 0.253247 0.0250448 
-0.603278 0.234173 0.0260221 
-0.647462 0.182241 0.0486194 
-0.692549 0.123301 0.00139441 
-0.707176 0.0508779 -0.0327235 
-0.68985 0.00700429 -0.0566863 
-0.68959 -0.0564177 -0.0715064 
-0.73017 -0.0874349 -0.0332301 
-0.643093 -0.155325 -0.100599 
-0.593381 -0.137207 -0.12611 
-0.710186 -0.214033 -0.223782 
-0.611163 -0.101859 -0.262176 
-0.570541 -0.0225616 -0.30031 
nan nan nan
-0.46356 -0.0382791 -0.412992 
-0.407079 0.0272028 -0.388849 
-0.375528 0.0464239 -0.436071 
-0.348487 0.0720935 -0.477932 
-0.347594 0.0804602 -0.520541 
-0.347128 0.085084 -0.605024 
-0.344615 0.0981963 -0.643747 
-0.307598 0.0627482 -0.65555 
-0.311975 -0.00962419 -0.669272 
-0.360343 -0.0432779 -0.703493 
-0.378129 -0.038698 -0.757166 
-0.417341 0.0041602 -0.847627 
-0.418237 0.034237 -0.782409 
-0.496725 -0.0237876 -0.89288 
-0.553979 -0.0229826 -0.873221 
-0.599451 -0.0497409 -0.812357 
-0.6391 -0.0898874 -0.781511 
-0.676346 -0.132729 -0.744436 
-0.72093 -0.169937 -0.728638 
-0.749908 -0.174002 -0.654206 
-0.730962 -0.142782 -0.573719 
-0.734435 -0.0916682 -0.526959 
-0.730037 -0.0784795 -0.519665 
-0.676883 -0.0704988 -0.525269 
-0.651725 -0.0962457 -0.532989 
-0.645504 -0.146288 -0.559606 
-0.660314 -0.219014 -0.61013 
-0.641374 -0.215436 -0.599914 
-0.641498 -0.203703 -0.56598 
-0.616551 -0.237598 -0.545091 
-0.581683 -0.228524 -0.509641 
nan nan nan
-0.572842 -0.2382 -0.563527 
-0.555861 -0.219791 -0.587957 
nan nan nan
-0.566456 -0.335979 -0.777254 
nan nan nan
-0.544664 -0.341501 -0.804863 
-0.508233 -0.305026 -0.771936 
-0.561857 -0.394363 -0.894249 
-0.464837 -0.313077 -0.679439 
-0.448743 -0.43212 -0.666419 
nan nan nan
-0.479335 -0.476972 -0.584723 
-0.387026 -0.341919 -0.493036 
-0.322871 -0.276501 -0.449512 
-0.291069 -0.260128 -0.454654 
-0.264752 -0.247047 -0.460721 
-0.210421 -0.300089 -0.478728 
-0.0874391 -0.152837 -0.401994 
-0.0539427 -0.115776 -0.392614 
-0.0566879 -0.0899828 -0.493427 
-0.00724775 -0.0638663 -0.394484 
0.0286094 -0.018516 -0.416344 
0.0776561 0.113411 -0.408911 
0.0773894 0.142071 -0.510144 
0.119229 0.180311 -0.436019 
0.145665 0.251846 -0.464411 
0.112639 0.324508 -0.503264 
0.0913619 0.320225 -0.542319 
0.0494876 0.36383 -0.572377 
0.0216147 0.399897 -0.645718 
0.0367426 0.413593 -0.61089 
0.0398383 0.472574 -0.641384 
0.0246416 0.541162 -0.745687 
0.0623929 0.632499 -0.931584 
-0.0255668 0.561146 -0.811819 
-0.0536902 0.55552 -0.847508 
-0.0573211 0.52058 -0.864435 
-0.090667 0.505949 -0.874026 
-0.0808216 0.477757 -0.954617 
nan nan nan
-0.00776679 0.452853 -0.92758 
0.0398188 0.433576 -0.951625 
0.0626293 0.3835 -0.885946 
0.101501 0.390867 -1.01416 
0.0908943 0.29258 -0.801598 
0.124316 0.270101 -0.768005 
0.178345 0.263012 -0.732923 
0.242147 0.273394 -0.687696 
0.294415 0.291228 -0.736356 
0.334519 0.376374 -0.853929 
0.334186 0.260447 -0.687072 
0.344143 0.244633 -0.695107 
0.370331 0.188524 -0.746221 
0.465147 0.0771323 -0.944487 
0.376665 0.0817235 -0.786855 
0.358846 0.0498944 -0.832387 
0.308688 0.0497334 -0.955579 
0.289612 -0.0258343 -0.805462 
0.263793 -0.0600961 -0.819677 
0.257948 -0.112778 -0.799773 
0.27642 -0.197618 -0.818121 
0.376671 -0.290171 -0.989605 
0.271728 -0.274009 -0.866381 
0.245931 -0.237905 -0.842977 
0.232113 -0.224642 -0.867184 
0.145407 -0.182582 -0.858028 
0.070033 -0.23342 -0.865852 
0.0129203 -0.251843 -0.839831 
-0.0446436 -0.269533 -0.803454 
-0.0657587 -0.286273 -0.824335 
-0.0745548 -0.24211 -0.809148 
-0.0231897 -0.21145 -0.871644 
0.0593582 -0.270392 -1.02964 
0.10931 -0.357345 -0.895388 
0.151077 -0.461825 -0.979995 
0.163555 -0.432225 -0.851295 
0.227014 -0.482963 -0.859621 
0.279812 -0.554018 -0.957201 
0.293715 -0.520162 -0.826418 
0.320839 -0.543514 -0.831363 
0.331689 -0.563882 -0.818306 
0.350561 -0.614093 -0.813502 
0.364453 -0.681908 -0.801298 
0.352766 -0.684823 -0.772826 
0.382046 -0.865851 -0.864677 
0.345901 -0.705496 -0.755267 
0.312997 -0.700705 -0.746719 
0.272285 -0.725459 -0.735106 
nan nan nan
0.206495 -0.75697 -0.719099 
0.139886 -0.780957 -0.702733 
0.0792348 -0.798767 -0.697906 
0.0668104 -0.881121 -0.672267 
0.0655006 -0.875686 -0.614908 
0.0757864 -0.919522 -0.569188 
0.0613656 -0.917722 -0.526993 
0.0399609 -0.903464 -0.502907 
-0.0152924 -0.840095 -0.428208 
-0.0303184 -0.835836 -0.390314 
-0.0467239 -0.789053 -0.281462 
-0.0251401 -0.797892 -0.243437 
-0.00275191 -0.80171 -0.230062 
0.0103651 -0.815122 -0.194777 
0.0529737 -0.982304 -0.207745 
-0.0249287 -0.849245 -0.0918949 
-0.0308058 -0.829051 -0.0478657 
-0.0162389 -0.855901 -0.0436994 
-0.0264501 -0.864854 -0.037005 
-0.0379519 -0.853547 -0.0228068 
-0.0846975 -0.837321 0.000514515 
-0.126754 -0.836842 0.0101096 
-0.17227 -0.80508 0.0314389 
-0.206934 -0.786966 0.0746669 
-0.206633 -0.800883 0.0918702 
-0.241631 -0.759311 0.109199 
-0.223669 -0.735638 0.158966 
-0.146183 -0.733413 0.21229 
-0.137122 -0.726013 0.226726 
-0.0846669 -0.770207 0.231314 
-0.0967049 -0.958673 0.297601 
-0.012315 -0.856167 0.198774 
0.0335082 -0.862414 0.152238 
0.0943865 -0.888366 0.111076 
0.150585 -0.955539 0.110943 
0.18177 -0.975092 0.0889138 
0.174443 -0.925187 0.0671726 
0.236748 -0.912519 0.0520569 
0.246437 -0.860383 0.0155134 
0.335401 -0.822724 0.0480504 
0.290648 -0.75597 -0.00715512 
0.251535 -0.665788 -0.0535253 
0.229098 -0.593875 -0.112907 
0.210353 -0.571228 -0.159475 
0.205373 -0.555167 -0.193248 
0.212919 -0.568322 -0.209087 
0.247776 -0.594221 -0.243262 
0.282878 -0.600645 -0.261463 
nan nan nan
0.328387 -0.677696 -0.350681 
0.320955 -0.678435 -0.320393 
0.341634 -0.700073 -0.300633 
0.367476 -0.722783 -0.29896 
0.386369 -0.747685 -0.308393 
0.43452 -0.842067 -0.309659 
0.50487 -1.01848 -0.358013 
0.482748 -0.955741 -0.237625 
0.510253 -0.974349 -0.207714 
0.527028 -1.04514 -0.159784 
0.54374 -1.05741 -0.12254 
0.546089 -0.960981 -0.10409 
0.587373 -0.996499 -0.121532 
0.602609 -0.945581 -0.141422 
0.641285 -0.942799 -0.184249 
0.678088 -0.945627 -0.21054 
0.708392 -0.9593 -0.241736 
0.735053 -0.90956 -0.24903 
0.696304 -0.797151 -0.207779 
0.717638 -0.772751 -0.196119 
0.702985 -0.719915 -0.208791 
0.703122 -0.688636 -0.250788 
0.796195 -0.817775 -0.419702 
0.745935 -0.620054 -0.420573 
0.743662 -0.572093 -0.462269 
0.701731 -0.560353 -0.472756 
0.735533 -0.568513 -0.513121 
nan nan nan
0.759929 -0.46997 -0.592011 
0.74951 -0.436088 -0.57764 
0.704952 -0.437436 -0.587023 
0.684365 -0.388889 -0.600097 
nan nan nan
0.566624 -0.329706 -0.513507 
0.528665 -0.329213 -0.476662 
0.48733 -0.244415 -0.364452 
0.473899 -0.230625 -0.2936 
nan nan nan
0.456189 -0.201069 -0.140224 
0.439474 -0.157083 -0.0607246 
0.450489 -0.122527 -0.0291473 
nan nan nan
0.397986 -0.0425097 0.00458026 
0.378578 0.00102593 0.0220614 
0.44087 -0.0264007 0.052455 
0.41351 -0.00731331 0.0152208 
0.421485 0.0406946 0.0164454 
0.422527 0.0625576 -0.0146537 
0.42075 0.0642982 -0.0402009 
0.386141 0.0748562 -0.0568049 
0.377243 0.0548548 -0.0678452 
0.406513 0.0481966 -0.0917076 
0.426985 0.0696375 -0.0780354 
0.486026 0.0943084 -0.107679 
nan nan nan
0.588922 0.135799 -0.0820813 
0.794327 0.105764 -0.0875719 
0.689451 0.194423 -0.0309492 
0.710379 0.200594 -0.01613 
0.742745 0.217731 -0.0517659 
0.829579 0.259687 -0.0974881 
0.822401 0.296388 -0.127499 
0.846072 0.336095 -0.137077 
0.89402 0.378482 -0.158314 
nan nan nan
0.928052 0.362781 -0.173583 
0.90834 0.349083 -0.178822 
0.922007 0.309394 -0.209183 
0.955277 0.232972 -0.249953 
0.910872 0.178249 -0.272848 
0.83893 0.170178 -0.29944 
0.8533 0.204225 -0.326262 
0.842493 0.211722 -0.337695 
0.76104 0.225482 -0.336997 
0.693585 0.243926 -0.370273 
0.688629 0.277457 -0.385145 
0.718119 0.30904 -0.42058 
0.740999 0.32727 -0.434117 
0.768557 0.347225 -0.440794 
nan nan nan
0.829847 0.379716 -0.59546 
0.894009 0.343657 -0.509293 
0.931203 0.359462 -0.492247 
0.968025 0.311142 -0.551982 
0.963192 0.18616 -0.674195 
0.868028 0.182599 -0.687991 
0.800214 0.141478 -0.699297 
0.753211 0.0292673 -0.655122 
0.735917 -0.0236898 -0.6162 
0.876702 -0.0648175 -0.645667 
0.914182 -0.0633555 -0.626776 
0.880433 -0.123163 -0.581269 
0.987514 -0.127223 -0.595175 
1.02503 -0.168193 -0.56188 
1.10536 -0.146095 -0.537094 
0.923575 -0.165364 -0.403389 
0.993134 -0.19339 -0.417838 
0.927178 -0.190906 -0.395221 
0.969646 -0.204989 -0.382115 
0.960029 -0.267533 -0.34032 
0.945109 -0.30838 -0.281789 
0.942602 -0.326803 -0.25154 
0.898431 -0.360747 -0.191156 
nan nan nan
0.904339 -0.4621 -0.124443 
0.853392 -0.437986 -0.0535916 
0.839995 -0.433606 -0.0137406 
0.852053 -0.428898 0.0185465 
0.859278 -0.415737 0.0612573 
0.898356 -0.357058 0.108221 
0.963775 -0.307554 0.127171 
1.02192 -0.27175 0.125703 
1.03703 -0.229839 0.14087 
1.02131 -0.15908 0.148165 
1.00127 -0.118591 0.158539 
1.0056 -0.0807972 0.195011 
1.09922 -0.0160422 0.323931 
0.994991 -0.0253985 0.269473 
0.955542 0.0312677 0.341638 
0.93832 0.156461 0.483774 
0.831788 0.0495635 0.353371 
0.806408 0.0396248 0.363824 
0.832643 0.0363826 0.390808 
0.812294 0.035362 0.396508 
0.794906 0.0230762 0.382676 
0.818037 0.0184825 0.425386 
0.967912 0.0406433 0.592399 
0.928869 -0.0083143 0.518992 
0.911446 -0.00509144 0.467762 
1.09134 0.150797 0.566608 
