0.686362 -0.215687 0.519936 
0.722257 -0.168635 0.495253 
0.878841 -0.189292 0.667015 
0.793558 -0.078526 0.444555 
0.775246 -0.0462591 0.493867 
0.849355 -0.0821059 0.700764 
0.697164 0.0147497 0.488267 
0.673507 0.0446924 0.483274 
0.643632 0.0525252 0.543802 
0.596249 0.0516268 0.550054 
0.563486 -0.0238691 0.601247 
0.626533 -0.079431 0.825356 
0.438331 -0.0605301 0.699837 
0.410767 -0.094268 0.707267 
0.382662 -0.0858066 0.707796 
0.402231 -0.0939492 0.774867 
0.363622 -0.0824706 0.759657 
0.403873 -0.067342 0.813518 
0.369726 -0.0390664 0.812058 
0.406153 -0.0364989 0.847541 
0.326615 -0.0174915 0.822773 
0.299148 0.00830317 0.843523 
0.289125 0.0338901 0.859289 
0.30238 0.031901 0.891887 
0.35694 0.00255715 0.939933 
0.357838 -0.0369819 0.94903 
0.231116 0.000362096 0.942019 
0.284383 0.00422371 1.01791 
nan nan nan
0.427019 -0.131361 1.10455 
0.189994 -0.192733 0.974568 
0.16091 -0.18745 0.980777 
0.294787 -0.277444 0.988719 
0.20625 -0.287538 0.937239 
0.191985 -0.324238 0.911881 
0.312086 -0.415569 0.947506 
0.440897 -0.448372 1.02882 
0.297797 -0.406021 0.910494 
0.456677 -0.446122 0.99098 
0.285476 -0.361889 0.782189 
0.31079 -0.364167 0.776076 
nan nan nan
0.311422 -0.38123 0.783035 
0.255955 -0.369999 0.742833 
0.284907 -0.394601 0.773909 
0.235067 -0.394836 0.727165 
nan nan nan
0.198246 -0.428144 0.727633 
0.256486 -0.648646 0.806702 
0.10806 -0.495003 0.69231 
0.0799039 -0.526032 0.645591 
0.0631369 -0.535045 0.606654 
0.055855 -0.58422 0.572818 
0.0673284 -0.662741 0.599532 
0.0689796 -0.579857 0.496514 
0.0759334 -0.653798 0.514843 
0.0463681 -0.747292 0.524529 
0.0318241 -0.696871 0.442904 
0.0115208 -0.790667 0.495841 
-0.0384628 -0.787059 0.434002 
-0.0691589 -0.816504 0.415213 
-0.112542 -0.802246 0.398732 
-0.157261 -0.841355 0.403707 
-0.219934 -0.817251 0.39634 
-0.248948 -0.846382 0.398979 
-0.261185 -0.843428 0.402463 
-0.261988 -0.747479 0.399938 
-0.267714 -0.749596 0.436258 
-0.307297 -0.949334 0.600038 
-0.316375 -0.758988 0.505056 
-0.337098 -0.771818 0.557145 
-0.354986 -0.792713 0.602033 
-0.37295 -0.719321 0.591788 
-0.382661 -0.71615 0.674568 
-0.383822 -0.679127 0.668532 
-0.37912 -0.638289 0.638188 
-0.437874 -0.697551 0.716301 
-0.490176 -0.733286 0.711987 
-0.535683 -0.704529 0.661838 
-0.58775 -0.805792 0.789548 
-0.641476 -0.740039 0.631703 
-0.710612 -0.728669 0.601091 
-0.750422 -0.687406 0.548444 
-0.760748 -0.675382 0.582417 
-0.789702 -0.619035 0.593199 
-0.817368 -0.576445 0.595396 
-0.86576 -0.602908 0.743034 
-0.857719 -0.473381 0.488213 
-0.848678 -0.451437 0.504285 
-0.832596 -0.417947 0.527466 
-0.835009 -0.373134 0.542893 
nan nan nan
-0.841027 -0.314192 0.559107 
-0.890912 -0.349195 0.758353 
-0.770998 -0.241581 0.56827 
-0.753732 -0.241727 0.659025 
-0.697912 -0.212724 0.627501 
-0.683023 -0.233794 0.672262 
-0.645913 -0.279502 0.745313 
-0.617237 -0.240304 0.668979 
-0.610063 -0.27467 0.691588 
-0.608489 -0.360668 0.69611 
-0.604387 -0.446088 0.702379 
-0.590958 -0.453858 0.555319 
-0.576094 -0.546562 0.794028 
-0.561998 -0.477506 0.57353 
-0.547278 -0.44547 0.534469 
-0.528344 -0.44884 0.5307 
-0.523255 -0.402045 0.492039 
-0.469102 -0.412841 0.548694 
-0.425227 -0.387517 0.577885 
-0.382242 -0.358934 0.608724 
-0.353344 -0.348976 0.606998 
-0.315534 -0.348338 0.674625 
-0.281105 -0.374407 0.874376 
-0.249534 -0.315135 0.859803 
-0.191998 -0.118437 0.639767 
-0.141229 -0.163169 0.720209 
-0.127005 -0.256295 0.815667 
nan nan nan
-0.0209641 -0.149672 0.72292 
-0.0049754 -0.157605 0.724039 
0.0539749 -0.0947243 0.625728 
0.100017 -0.092655 0.678408 
nan nan nan
0.108717 -0.061397 0.712571 
0.0962697 0.0294636 0.598102 
0.0887048 0.0824085 0.606696 
nan nan nan
0.0560844 0.137695 0.730957 
0.0752508 0.183579 0.671829 
0.0469594 0.193535 0.857494 
0.036368 0.245077 0.612494 
-0.0525092 0.19605 0.835816 
-0.0484394 0.268978 0.596588 
-0.0671898 0.348155 0.608899 
nan nan nan
-0.0627518 0.474928 0.527336 
nan nan nan
-0.0238873 0.593996 0.44384 
-0.0401767 0.603315 0.413981 
-0.0861948 0.625745 0.38443 
-0.269019 0.785947 0.476704 
-0.19536 0.712552 0.391316 
-0.206402 0.714671 0.404027 
-0.176937 0.59086 0.324302 
-0.217351 0.583044 0.301978 
-0.364782 0.713654 0.435959 
-0.25093 0.614587 0.250857 
-0.221202 0.631024 0.21068 
-0.179012 0.664677 0.166014 
-0.166697 0.654787 0.120112 
-0.154575 0.676009 0.0610775 
-0.154834 0.680996 -0.00010332 
-0.130886 0.687721 -0.0598389 
-0.11994 0.689873 -0.0755533 
-0.0767403 0.790225 -0.107509 
-0.0855004 0.788998 -0.126379 
-0.0929962 0.818745 -0.180628 
-0.0536143 0.872561 -0.19168 
-0.00504011 0.948284 -0.196017 
0.0337224 1.10036 -0.222089 
0.060617 1.13912 -0.204412 
0.10818 0.982409 -0.155166 
0.122999 0.945702 -0.134101 
0.148622 0.90378 -0.110625 
0.177649 0.900136 -0.097915 
0.234587 1.1314 -0.117847 
0.299384 0.852415 -0.0955223 
0.318139 0.909742 -0.0765185 
0.349847 0.949217 -0.0596799 
0.390285 1.05337 -0.054766 
0.374549 0.881458 -0.0138956 
0.343995 0.87461 0.00485044 
0.31545 0.875909 0.04562 
0.286459 0.78046 0.0877185 
0.271437 0.756294 0.128439 
0.300867 0.719272 0.172152 
0.43551 0.692673 0.260392 
0.405937 0.537052 0.119819 
0.414389 0.451647 0.0584797 
0.392881 0.431638 0.079528 
0.31935 0.422475 0.115905 
0.263332 0.375333 0.136353 
0.190448 0.345055 0.153675 
0.1373 0.324385 0.117933 
0.0663653 0.321586 0.0870655 
0.027724 0.299156 0.030825 
-0.0814915 0.344207 -0.0705376 
-0.025352 0.234887 -0.0950951 
-0.0185016 0.207181 -0.102667 
-0.0712616 0.207874 -0.0779983 
-0.241171 0.251468 -0.113599 
-0.266244 0.23681 -0.0928998 
-0.182803 0.152549 0.0152561 
-0.180198 0.0974726 0.062753 
-0.198343 0.064568 0.102611 
-0.250286 0.088361 0.102041 
-0.268456 0.0797083 0.132896 
-0.299117 0.0937606 0.133406 
-0.348458 0.0964371 0.141766 
-0.403742 0.0730712 0.129198 
-0.460682 0.0258188 0.0745987 
-0.480967 -0.0179047 0.0666158 
-0.512799 -0.0851786 0.0372882 
-0.545557 -0.173477 0.0222162 
-0.574323 -0.209846 0.0243684 
nan nan nan
-0.669246 -0.309278 0.019207 
-0.721781 -0.360154 0.0441749 
-0.758432 -0.351196 0.0691613 
-0.789194 -0.378249 0.146429 
-0.820514 -0.36217 0.178757 
-0.861183 -0.284887 0.240263 
-0.880085 -0.258941 0.257341 
-0.925553 -0.196495 0.322112 
-0.968777 -0.120824 0.380747 
-0.999188 -0.0351159 0.393115 
-0.96821 0.0340178 0.356275 
-0.916049 0.069052 0.348005 
-0.87291 0.0982287 0.382939 
-1.12669 0.209813 0.478658 
-0.899082 0.120489 0.461967 
-0.866344 0.130442 0.498026 
-0.923012 0.176287 0.518229 
-0.912149 0.209102 0.510434 
-1.02517 0.219139 0.462934 
-1.03647 0.252695 0.447515 
-1.04364 0.256149 0.418943 
-0.909368 0.246137 0.418305 
-0.937316 0.302933 0.430897 
-1.11339 0.469251 0.484951 
-0.892375 0.365358 0.432729 
-0.820259 0.319693 0.396389 
-1.07789 0.458984 0.402021 
-0.901373 0.367261 0.350218 
-0.859418 0.312138 0.266289 
-0.871124 0.361626 0.239574 
-0.945674 0.50915 0.265739 
-0.81053 0.392274 0.194568 
-0.957369 0.525222 0.266131 
-0.78409 0.391718 0.163979 
-0.709412 0.400873 0.13381 
-0.670069 0.399527 0.11354 
-0.701707 0.490836 0.152621 
-0.805822 0.660607 0.232867 
-0.63708 0.598553 0.11753 
-0.609606 0.691202 0.111139 
-0.540853 0.743426 0.0891377 
-0.483692 0.837362 0.0931417 
-0.420564 0.875331 0.0781877 
-0.405438 0.958815 0.0512953 
-0.359611 0.915846 0.0658511 
-0.338754 1.1692 0.00898356 
-0.0401996 1.08732 0.497366 
-0.0301452 1.15794 0.4341 
0.0360027 1.07597 0.490183 
0.0707206 1.12655 0.453452 
0.144458 1.08985 0.451188 
0.193107 1.10971 0.380462 
0.215878 1.00461 0.393546 
0.14549 1.36353 0.185124 
0.244679 1.20018 0.267449 
0.21963 1.32593 0.20295 
0.242377 1.21502 0.280901 
0.256852 1.12871 0.314691 
0.221028 1.30921 0.219553 
0.200969 1.10756 0.305866 
0.139203 1.13698 0.254925 
0.107799 1.07108 0.260662 
0.0704695 1.05365 0.226495 
0.0557831 1.16863 0.165236 
0.0701331 1.0196 0.206097 
0.048813 1.05141 0.178604 
0.0133077 1.10695 0.138527 
-0.012081 1.03229 0.16422 
-0.0459081 1.06921 0.141929 
-0.0710568 1.09252 0.151572 
-0.0947694 1.08397 0.185345 
-0.157237 1.19691 0.182846 
-0.214885 1.37347 0.174498 
-0.236055 1.10304 0.258668 
-0.238444 1.07278 0.290804 
-0.255642 1.09371 0.27427 
-0.298823 1.16858 0.248738 
-0.323386 1.1466 0.248999 
-0.364214 1.32425 0.215881 
-0.359963 1.1278 0.254649 
-0.399982 1.13505 0.249523 
-0.427395 1.01883 0.259277 
-0.54204 1.19243 0.190486 
-0.495528 0.995036 0.236108 
nan nan nan
-0.639165 1.11494 0.150521 
-0.625668 0.977314 0.0932437 
-0.627206 1.02396 0.0664041 
-0.619411 1.03183 0.0243341 
-0.615406 1.00914 -0.0264627 
-0.678788 1.08594 -0.0757434 
-0.457913 0.862405 -0.132372 
-0.475623 0.883381 -0.146485 
-0.485242 0.811858 -0.172578 
-0.525165 0.804267 -0.183398 
-0.682299 0.899007 -0.192195 
-0.552111 0.711712 -0.169179 
-0.624183 0.713593 -0.138693 
-0.672513 0.746393 -0.0849077 
-0.807587 0.846136 -0.0274805 
-0.733875 0.671854 -0.0912906 
-0.893918 0.771448 -0.0405211 
-0.761619 0.55938 -0.181187 
-0.812562 0.562866 -0.138621 
-1.00352 0.653584 -0.00178946 
-0.879726 0.493772 -0.0933433 
-0.957397 0.478911 -0.0169569 
-0.948098 0.372825 0.0046391 
-0.910753 0.274612 0.0108891 
-0.879081 0.220899 0.00141833 
-0.9127 0.166641 -0.00158088 
-0.971857 0.15175 0.0178195 
-0.920191 0.0433346 -0.0477756 
-0.880176 0.0273588 -0.0870599 
-1.0526 0.0457089 -0.209914 
-0.889127 0.0711719 -0.256318 
-0.838893 0.10695 -0.296363 
nan nan nan
-0.712141 0.0607128 -0.372986 
-0.651838 0.114831 -0.367991 
-0.608794 0.146546 -0.428114 
-0.586782 0.167843 -0.496195 
-0.58543 0.204664 -0.539513 
-0.594158 0.232824 -0.608914 
-0.588333 0.245732 -0.642555 
-0.567582 0.217396 -0.644216 
-0.569799 0.148886 -0.661102 
-0.58625 0.117833 -0.714455 
-0.584762 0.119971 -0.762114 
-0.62891 0.145642 -0.842598 
-0.651289 0.216635 -0.779871 
-0.67473 0.119911 -0.856024 
-0.717593 0.11679 -0.842732 
-0.73789 0.0986052 -0.782885 
-0.751933 0.0477839 -0.743758 
-0.780827 -0.0199316 -0.709742 
-0.857428 -0.0837701 -0.718478 
-0.913008 -0.0650953 -0.661525 
-0.901762 -0.0290077 -0.552732 
-0.920359 -0.0123372 -0.518032 
-0.959318 -0.00336274 -0.530616 
-0.884515 -0.0395613 -0.50135 
-0.824111 -0.070179 -0.503106 
-0.796154 -0.0757253 -0.560607 
-0.806959 -0.151048 -0.660449 
-0.777405 -0.123629 -0.639056 
-0.789474 -0.102058 -0.578617 
-0.763082 -0.143788 -0.55786 
-0.743658 -0.134381 -0.514935 
nan nan nan
-0.707289 -0.120913 -0.594676 
-0.681473 -0.0795339 -0.618783 
nan nan nan
-0.6603 -0.198263 -0.841992 
nan nan nan
-0.645615 -0.205445 -0.835101 
-0.63332 -0.137447 -0.794889 
-0.680668 -0.296976 -0.907168 
-0.613837 -0.167772 -0.727624 
-0.584615 -0.292451 -0.762133 
nan nan nan
-0.594243 -0.370288 -0.771332 
-0.574503 -0.2884 -0.615681 
-0.544834 -0.206775 -0.485442 
-0.524488 -0.186476 -0.509027 
-0.489385 -0.166216 -0.543521 
-0.422205 -0.218072 -0.620531 
-0.356317 -0.0827255 -0.471302 
-0.327241 -0.0445816 -0.468294 
-0.354227 -0.0768802 -0.647549 
-0.288174 0.030239 -0.534279 
-0.256163 0.0722934 -0.579876 
-0.203719 0.241691 -0.583096 
-0.185185 0.281752 -0.729874 
-0.111859 0.272373 -0.548828 
-0.0579413 0.307728 -0.582932 
-0.0268204 0.37877 -0.59604 
0.00038574 0.381351 -0.580226 
-0.00786691 0.44284 -0.59976 
-0.00388023 0.471754 -0.665964 
0.0100146 0.501239 -0.565853 
0.0257881 0.541657 -0.571589 
0.0333766 0.585547 -0.690765 
0.0535506 0.521447 -0.952306 
0.0354207 0.615514 -0.695988 
0.035212 0.61185 -0.743613 
0.0509111 0.593964 -0.758707 
0.0641286 0.608146 -0.761945 
0.100275 0.556626 -0.838792 
nan nan nan
0.14499 0.534812 -0.769944 
0.181306 0.512147 -0.804363 
0.196385 0.483263 -0.729014 
0.278511 0.475027 -0.899806 
0.208757 0.446184 -0.606653 
0.203596 0.418181 -0.571809 
0.180352 0.368679 -0.581267 
0.152225 0.327844 -0.562923 
0.177375 0.290409 -0.68081 
0.216221 0.336076 -0.866632 
0.170842 0.245043 -0.616971 
0.174551 0.203706 -0.618013 
0.188698 0.139755 -0.687339 
0.266249 0.0925072 -0.888203 
0.172339 0.082767 -0.699823 
0.177862 0.0813021 -0.7758 
0.194729 0.0918674 -0.895019 
0.092806 0.037138 -0.779332 
0.0762497 0.0328535 -0.825171 
0.0586949 -0.0277251 -0.833378 
0.0480915 -0.112076 -0.856043 
0.113959 -0.267389 -1.01962 
0.00818399 -0.182752 -0.869361 
-0.00666782 -0.158462 -0.866685 
-0.0262376 -0.143355 -0.904034 
-0.109476 -0.0696496 -0.888731 
-0.18179 -0.0871081 -0.913157 
-0.241254 -0.0948503 -0.923896 
-0.29854 -0.0813135 -0.939992 
-0.331924 -0.161027 -0.957341 
-0.32141 -0.0514393 -0.948173 
-0.269972 -0.0594781 -0.934992 
-0.177087 -0.225846 -1.08437 
-0.216449 -0.257565 -0.904228 
-0.168496 -0.367705 -0.991878 
-0.173284 -0.323233 -0.841335 
-0.120382 -0.367545 -0.810716 
-0.0629029 -0.447482 -0.957399 
-0.0690459 -0.380007 -0.741456 
-0.0565894 -0.408586 -0.744912 
-0.0569105 -0.41828 -0.742371 
-0.0421195 -0.467507 -0.752028 
-0.0408982 -0.520413 -0.745146 
-0.0739289 -0.500763 -0.69045 
0.0276556 -0.677901 -0.882502 
-0.0797146 -0.499813 -0.692874 
-0.112684 -0.511219 -0.695626 
-0.153396 -0.565396 -0.725553 
nan nan nan
-0.192184 -0.621359 -0.712074 
-0.211926 -0.640502 -0.703312 
-0.221555 -0.678515 -0.716459 
-0.192767 -0.744777 -0.681819 
-0.229778 -0.724514 -0.640929 
-0.251523 -0.756811 -0.633919 
-0.283803 -0.754072 -0.612378 
-0.301234 -0.750821 -0.609371 
-0.343789 -0.705761 -0.559068 
-0.340999 -0.725357 -0.511919 
-0.410061 -0.685302 -0.390025 
-0.399914 -0.734505 -0.333233 
-0.408063 -0.700038 -0.311049 
-0.401613 -0.710159 -0.291726 
-0.348306 -0.911465 -0.282272 
-0.421437 -0.773815 -0.166364 
-0.441006 -0.740927 -0.0988472 
-0.443753 -0.786342 -0.0931001 
-0.466874 -0.772146 -0.0915106 
-0.485049 -0.750804 -0.0700669 
-0.524197 -0.747922 -0.0395148 
-0.567267 -0.760243 -0.0161976 
-0.615363 -0.709548 -0.00629673 
-0.661487 -0.678621 0.068493 
-0.674973 -0.709267 0.0882858 
-0.714156 -0.643721 0.0930754 
-0.681444 -0.649906 0.163166 
-0.625639 -0.703789 0.213179 
-0.611249 -0.668647 0.22368 
-0.579682 -0.753648 0.209231 
-0.598206 -0.988421 0.245892 
-0.489499 -0.857703 0.129052 
-0.443896 -0.83156 0.107225 
-0.368986 -0.866629 0.083072 
-0.313127 -0.923058 0.0829717 
-0.267198 -0.952977 0.0804524 
-0.254813 -0.898256 0.0515933 
-0.194448 -0.902788 0.0325954 
-0.17737 -0.819397 -0.00164216 
-0.107865 -0.827469 0.0212298 
-0.136454 -0.712194 -0.0366107 
-0.147168 -0.624252 -0.0766484 
-0.164084 -0.543667 -0.133809 
-0.16904 -0.525025 -0.178388 
-0.17267 -0.501955 -0.201023 
-0.143426 -0.531982 -0.228849 
-0.106013 -0.590807 -0.264611 
-0.0635957 -0.596357 -0.279277 
nan nan nan
-0.0325848 -0.693126 -0.351581 
-0.0408147 -0.666549 -0.327853 
-0.0182352 -0.673294 -0.319132 
0.00187924 -0.703693 -0.318825 
0.0261094 -0.740978 -0.328261 
0.0562013 -0.846425 -0.360113 
0.086484 -1.02943 -0.478091 
0.0577692 -0.933746 -0.325055 
0.0722395 -0.951095 -0.276406 
0.0655436 -1.01481 -0.266744 
0.062553 -1.01139 -0.226623 
0.0811971 -0.951969 -0.139715 
0.0961801 -0.977177 -0.184814 
0.120061 -0.95404 -0.183494 
0.139346 -0.938958 -0.213347 
0.18131 -0.952246 -0.278095 
0.219128 -0.971638 -0.324721 
0.256896 -0.924468 -0.306983 
0.256099 -0.823584 -0.23963 
0.279844 -0.845736 -0.269342 
0.275897 -0.764074 -0.240971 
0.281248 -0.715168 -0.240504 
0.401123 -0.890657 -0.437481 
0.354952 -0.686733 -0.342246 
0.383991 -0.672494 -0.386651 
0.340251 -0.632507 -0.381833 
0.344481 -0.646348 -0.439557 
nan nan nan
0.377259 -0.536159 -0.515371 
0.384146 -0.496316 -0.49999 
0.358312 -0.502786 -0.499748 
0.348946 -0.469898 -0.516981 
nan nan nan
0.275486 -0.4074 -0.422008 
0.256123 -0.40576 -0.385728 
0.283288 -0.333604 -0.293301 
0.28018 -0.325952 -0.240393 
nan nan nan
0.281416 -0.30524 -0.0883893 
0.344426 -0.233466 -0.0220428 
0.406757 -0.177688 -0.0208282 
nan nan nan
0.399427 -0.0497999 0.010006 
0.412268 0.027657 0.042505 
0.414047 0.0097376 -0.143038 
0.437516 0.0131007 -0.0747097 
0.487526 0.0990479 -0.0616931 
0.526156 0.0999384 -0.0589494 
0.542505 0.0669571 -0.0599698 
0.55649 0.0835301 0.0373665 
0.559792 0.0456393 0.0428239 
0.587767 0.00727867 0.0194598 
0.614257 0.0297373 0.0157713 
0.66491 -0.0053067 -0.031941 
nan nan nan
0.708774 0.0790087 -0.0861099 
0.840821 -0.0559957 -0.22794 
0.761283 0.143584 -0.13278 
0.781742 0.156676 -0.126902 
0.780449 0.168282 -0.161443 
0.808862 0.135561 -0.228968 
0.797149 0.180107 -0.239291 
0.828536 0.193526 -0.250844 
0.907092 0.163707 -0.28664 
nan nan nan
0.875489 0.182996 -0.302063 
0.833059 0.19245 -0.292523 
0.849723 0.129616 -0.350846 
0.852958 0.0520232 -0.395767 
0.807084 0.0206972 -0.398113 
0.721784 0.0310612 -0.402011 
0.705818 0.0632997 -0.439995 
0.678325 0.087191 -0.446024 
0.634034 0.126699 -0.419731 
0.610299 0.128791 -0.459065 
0.599612 0.152353 -0.481576 
0.583507 0.161034 -0.52921 
0.566494 0.187693 -0.528696 
0.577761 0.219613 -0.537508 
nan nan nan
0.718082 0.13573 -0.739135 
0.61858 0.235458 -0.636771 
0.618781 0.294924 -0.588759 
0.610637 0.208379 -0.690435 
0.621135 0.0409272 -0.827007 
0.590695 0.0247846 -0.822012 
0.56479 -0.04666 -0.807374 
0.486649 -0.108768 -0.692507 
0.463553 -0.126337 -0.573478 
0.571882 -0.163841 -0.641212 
0.595749 -0.163567 -0.639558 
0.548653 -0.19288 -0.540185 
0.637983 -0.209675 -0.578314 
0.660414 -0.267591 -0.571238 
0.757895 -0.290605 -0.598868 
0.590658 -0.236431 -0.374443 
0.660817 -0.309473 -0.427097 
0.613988 -0.281921 -0.356682 
0.660881 -0.317017 -0.358944 
0.625948 -0.351003 -0.30185 
0.614415 -0.370502 -0.256951 
0.639068 -0.39988 -0.255088 
0.592591 -0.435812 -0.213207 
nan nan nan
0.605116 -0.564923 -0.1981 
0.567537 -0.545851 -0.109726 
0.552946 -0.552122 -0.0415002 
0.608592 -0.55301 -0.00912887 
0.623258 -0.534077 0.0200101 
0.662693 -0.50861 0.034009 
0.69966 -0.432149 0.0469396 
0.720459 -0.400027 0.062033 
0.727145 -0.380495 0.0941958 
0.740778 -0.321649 0.184795 
0.74116 -0.30168 0.220192 
0.746209 -0.328393 0.306479 
0.779466 -0.346224 0.5058 
0.632458 -0.257646 0.377341 
0.61176 -0.247705 0.470728 
0.652671 -0.246226 0.664779 
0.526836 -0.219365 0.474251 
0.501808 -0.229886 0.462094 
0.533883 -0.283817 0.505597 
0.523768 -0.300655 0.514416 
0.476165 -0.284363 0.457052 
0.500813 -0.297652 0.513995 
0.650699 -0.337848 0.732002 
0.576528 -0.343776 0.643814 
0.539002 -0.296201 0.559913 
0.755206 -0.300219 0.743119 
