-0.96082 -0.0731818 0.255267 
-0.966474 -0.092665 0.235727 
-0.830773 -0.139208 0.204965 
-0.957597 -0.156428 0.199479 
-0.928872 -0.192149 0.239017 
-0.827131 -0.219842 0.222211 
-0.923685 -0.21901 0.286219 
-0.910768 -0.227946 0.302159 
-0.875848 -0.249172 0.308042 
-0.895291 -0.259789 0.333622 
-0.857982 -0.230047 0.367861 
-0.687681 -0.267065 0.354735 
-0.743568 -0.239413 0.426956 
-0.717279 -0.2306 0.441216 
-0.720332 -0.229319 0.450024 
-0.658222 -0.264461 0.444358 
-0.663069 -0.25775 0.481361 
-0.654938 -0.279652 0.492453 
-0.647326 -0.26942 0.513013 
-0.64579 -0.283231 0.521015 
-0.605889 -0.250243 0.544413 
-0.605151 -0.26468 0.565284 
-0.597324 -0.279383 0.592332 
-0.624259 -0.275939 0.624079 
-0.650784 -0.265659 0.655377 
-0.649924 -0.242957 0.669918 
-0.565238 -0.227866 0.663529 
-0.632247 -0.217777 0.675834 
nan nan nan
-0.671332 -0.19425 0.694433 
-0.597993 -0.161294 0.700763 
-0.573721 -0.146437 0.717943 
-0.623295 -0.133024 0.699426 
-0.602361 -0.112 0.701165 
-0.586077 -0.0705954 0.701543 
-0.641692 -0.0825829 0.678273 
-0.702883 -0.078083 0.675745 
-0.612126 -0.0416655 0.648573 
-0.717909 -0.0502413 0.632699 
-0.599697 -0.024057 0.567817 
-0.651557 -0.0194363 0.575784 
nan nan nan
-0.702778 -0.00838477 0.615884 
-0.607469 0.00658432 0.590481 
-0.692354 0.0306021 0.625077 
-0.641835 0.0589886 0.645018 
nan nan nan
-0.614452 0.0993756 0.674781 
-0.677319 0.183758 0.694682 
-0.524541 0.151282 0.700017 
-0.495109 0.189745 0.697932 
-0.451795 0.225262 0.722931 
-0.442202 0.273851 0.691996 
-0.447637 0.282017 0.631314 
-0.447672 0.329221 0.706425 
-0.435007 0.321285 0.631699 
-0.414249 0.327477 0.597083 
-0.429969 0.406653 0.607865 
-0.36346 0.350267 0.571591 
-0.344064 0.371238 0.583489 
-0.304866 0.3842 0.578399 
-0.297971 0.422279 0.584619 
-0.27016 0.426344 0.584177 
-0.267354 0.455289 0.598301 
-0.269101 0.468201 0.592245 
-0.285255 0.491105 0.595499 
-0.297184 0.527401 0.636126 
-0.280855 0.486744 0.656222 
-0.209801 0.419375 0.612288 
-0.23943 0.473403 0.702737 
-0.217662 0.451077 0.706297 
-0.188627 0.425389 0.70763 
-0.173613 0.427317 0.742786 
-0.135413 0.384409 0.733324 
-0.127505 0.379646 0.744885 
-0.138711 0.365646 0.759492 
-0.0993282 0.356409 0.72665 
-0.0820782 0.355063 0.728693 
-0.05427 0.367125 0.726528 
0.00554611 0.366354 0.76409 
0.0297765 0.362054 0.72037 
0.101997 0.349994 0.747187 
0.126989 0.340818 0.705732 
0.147107 0.326928 0.755775 
0.183486 0.311736 0.765922 
0.234643 0.290415 0.785354 
0.294849 0.283262 0.84332 
0.278679 0.217747 0.719271 
0.282519 0.173602 0.750551 
0.264794 0.148569 0.765187 
0.261738 0.0883353 0.729583 
nan nan nan
0.338702 0.11011 0.830738 
0.391072 0.134462 0.996618 
0.326176 0.0672131 0.799095 
0.298688 0.11325 0.899986 
0.277787 0.0649153 0.814255 
0.239829 0.0935945 0.842284 
0.222048 0.107972 0.876646 
0.174145 0.104279 0.808994 
0.161412 0.130909 0.831336 
0.154338 0.13095 0.861034 
0.131961 0.154516 0.912861 
0.0800353 0.20468 0.889783 
0.103974 0.211931 1.06392 
0.0455774 0.173995 0.912187 
0.0373164 0.160852 0.87744 
0.0202522 0.147274 0.947552 
0.0164056 0.137163 0.871953 
-0.0271197 0.0993759 0.926862 
-0.0419585 0.0884071 0.836328 
-0.0542343 0.0651443 0.765473 
-0.0841642 0.0785264 0.709439 
-0.0942863 0.0182399 0.750026 
-0.127384 -0.0624185 0.852265 
-0.148358 -0.0653005 0.810326 
-0.145981 -0.0286245 0.62876 
-0.175694 -0.061942 0.740719 
-0.189575 -0.0762686 0.815736 
nan nan nan
-0.254244 -0.0737337 0.7352 
-0.281563 -0.0702965 0.727674 
-0.294096 -0.0825241 0.637324 
-0.295286 -0.126584 0.674506 
nan nan nan
-0.292351 -0.163429 0.683692 
-0.289561 -0.180114 0.560658 
-0.268334 -0.231963 0.572915 
nan nan nan
-0.244476 -0.296104 0.675185 
-0.233475 -0.337825 0.642397 
-0.225416 -0.409017 0.771125 
-0.172582 -0.354906 0.595541 
-0.175101 -0.419701 0.764465 
-0.109432 -0.344845 0.601675 
-0.110281 -0.415747 0.624632 
nan nan nan
0.00105986 -0.514048 0.597959 
nan nan nan
-0.0293777 -0.657403 0.573828 
-0.0289076 -0.670924 0.565188 
0.0147291 -0.692517 0.554904 
-0.0810042 -0.765333 0.579801 
0.0105892 -0.74591 0.533171 
0.00903318 -0.7686 0.524025 
0.0868247 -0.736598 0.520982 
0.0983074 -0.800704 0.496537 
0.000982967 -0.888465 0.47143 
0.135946 -0.846649 0.428934 
0.141519 -0.835392 0.39061 
0.168355 -0.827557 0.346191 
0.204796 -0.798163 0.294492 
0.174133 -0.830371 0.26165 
0.174582 -0.845942 0.236065 
0.17568 -0.860089 0.209388 
0.140808 -0.813368 0.160631 
0.164267 -0.882105 0.171721 
0.152022 -0.833877 0.138947 
0.146281 -0.860642 0.14867 
0.138107 -0.899767 0.150252 
0.128709 -0.957688 0.13811 
0.142478 -1.03397 0.144891 
0.126587 -1.0562 0.129468 
0.0711963 -1.03035 0.0874606 
0.0472927 -1.04391 0.0743674 
-0.00398154 -1.03235 0.0556636 
-0.0412242 -1.03372 0.0403431 
-0.0559471 -1.05281 0.010069 
-0.104908 -1.04143 0.0623113 
-0.0901041 -1.03461 0.0162905 
-0.115498 -1.04214 0.000934726 
-0.132841 -1.04568 -0.0451952 
-0.176634 -0.999467 -0.00570106 
-0.183219 -0.982101 -0.00943437 
-0.209235 -0.955147 -0.0465059 
-0.285157 -0.908948 -0.0406584 
-0.26811 -0.886823 -0.0539314 
-0.295129 -0.836457 -0.111622 
-0.321595 -0.761339 -0.182456 
-0.321492 -0.765602 -0.0455959 
-0.346961 -0.743639 0.0748364 
-0.313214 -0.681275 0.050402 
-0.271372 -0.660314 0.0301287 
-0.244459 -0.613332 -0.00653244 
-0.192049 -0.582228 0.0539338 
-0.139073 -0.511158 -0.0535951 
-0.0822785 -0.471897 -0.0803764 
-0.0305133 -0.409365 -0.126427 
0.0312745 -0.34009 -0.2325 
0.0627333 -0.349888 -0.0080243 
0.082901 -0.339502 0.0431201 
0.053892 -0.295703 -0.0285657 
0.0738985 -0.263498 -0.169793 
0.0804234 -0.228696 -0.148016 
0.0712217 -0.19605 -0.0319965 
0.0709572 -0.16415 0.0292653 
0.088805 -0.118226 0.0710177 
0.13197 -0.097516 -0.00508874 
0.153531 -0.0829044 0.0127816 
0.184009 -0.0839235 0.0162253 
0.215015 -0.0880305 0.0386162 
0.258951 -0.0724091 0.0544433 
0.302256 -0.0549094 0.0565282 
0.343584 -0.0328693 0.0979377 
0.342206 0.0572114 0.129931 
0.35448 0.141244 0.180277 
0.37315 0.174469 0.2259 
nan nan nan
0.428666 0.260197 0.279471 
0.41928 0.2581 0.338902 
0.515176 0.292825 0.344265 
0.47932 0.235144 0.405072 
0.531068 0.2241 0.43651 
0.568243 0.151021 0.444595 
0.572096 0.113199 0.443892 
0.568389 0.0597429 0.481201 
0.5787 0.0199425 0.537171 
0.573553 -0.0467115 0.52065 
0.610949 -0.0706994 0.487519 
0.611152 -0.0941321 0.477311 
0.597423 -0.153012 0.490059 
0.474012 -0.241227 0.557763 
0.571527 -0.187087 0.541039 
0.592562 -0.188495 0.580083 
0.582636 -0.245851 0.56844 
0.627386 -0.253608 0.55544 
0.601197 -0.270528 0.552914 
0.613906 -0.284399 0.540158 
0.618954 -0.289394 0.53205 
0.675723 -0.269465 0.505227 
0.669369 -0.314653 0.492069 
0.645559 -0.381235 0.503987 
0.676646 -0.347491 0.469068 
0.712325 -0.330806 0.458599 
0.659027 -0.407734 0.470771 
0.669787 -0.358579 0.432771 
0.668473 -0.319786 0.401618 
0.630462 -0.376777 0.373299 
0.610337 -0.478905 0.411524 
0.592818 -0.391029 0.328839 
0.597187 -0.499029 0.36336 
0.570011 -0.404902 0.289666 
0.553057 -0.402989 0.250394 
0.531786 -0.381712 0.215439 
0.550938 -0.458331 0.223785 
0.561441 -0.54694 0.242691 
0.537147 -0.486896 0.125549 
0.532995 -0.571986 0.0843958 
0.516936 -0.599381 0.0270969 
0.508119 -0.660774 -0.00905663 
0.476979 -0.705118 -0.042286 
0.490711 -0.74216 -0.100121 
0.407684 -0.749995 -0.0918928 
0.429344 -0.819466 -0.207826 
0.304405 -0.770498 -0.156081 
0.286982 -0.816726 -0.207393 
0.216373 -0.778887 -0.174651 
0.192932 -0.818427 -0.212509 
0.16319 -0.82534 -0.22233 
0.145486 -0.846953 -0.241273 
0.0943675 -0.813175 -0.214775 
0.13313 -0.887152 -0.28908 
0.104294 -0.868286 -0.264063 
0.13899 -0.902472 -0.309214 
0.122344 -0.895124 -0.277011 
0.099473 -0.864678 -0.262891 
0.170046 -0.931203 -0.349042 
0.152363 -0.879748 -0.231679 
0.162656 -0.898877 -0.226533 
0.176079 -0.899148 -0.181996 
0.196177 -0.936603 -0.182272 
0.225287 -0.996293 -0.225876 
0.187853 -0.969889 -0.182278 
0.215901 -1.01284 -0.190247 
0.266264 -1.03703 -0.223779 
0.246998 -1.01062 -0.157049 
0.276486 -1.01329 -0.151417 
0.299918 -1.01031 -0.128307 
0.312647 -1.0045 -0.108113 
0.383301 -1.03973 -0.118528 
0.430867 -1.05655 -0.138023 
0.386617 -1.00946 -0.0594592 
0.396357 -0.989246 -0.0396749 
0.397699 -0.986216 -0.0375923 
0.421121 -0.96813 -0.0321037 
0.42373 -0.933601 -0.0109499 
0.512327 -0.988155 -0.0707837 
0.445388 -0.895181 0.00127843 
0.48892 -0.894689 -0.00383693 
0.461367 -0.843378 0.0420276 
0.564501 -0.885308 -0.0149654 
0.525135 -0.79466 0.0440093 
nan nan nan
0.641888 -0.902701 0.0162818 
0.664607 -0.788221 0.0131506 
0.686326 -0.798195 -0.00649043 
0.734855 -0.790936 -0.0198572 
0.762251 -0.783187 -0.0285867 
0.834808 -0.82947 -0.0125196 
0.7736 -0.714723 -0.113141 
0.796141 -0.761516 -0.0980786 
0.790661 -0.718584 -0.119673 
0.822232 -0.726918 -0.0697902 
0.906101 -0.788656 0.0120861 
0.793091 -0.602318 -0.122737 
0.824589 -0.609632 -0.0486154 
0.780166 -0.613465 -0.00213668 
0.849356 -0.673107 0.123564 
0.800264 -0.568199 0.0621889 
0.864676 -0.59626 0.1565 
0.807823 -0.444412 0.0308545 
0.817766 -0.450125 0.111939 
0.87352 -0.526765 0.212318 
0.814964 -0.401998 0.16928 
0.819158 -0.379115 0.207001 
0.789293 -0.318317 0.208938 
0.762839 -0.257777 0.210224 
0.734592 -0.205095 0.210057 
0.73658 -0.19412 0.188732 
0.741983 -0.190198 0.199887 
0.733128 -0.148612 0.177281 
0.715636 -0.0938573 0.161015 
0.805376 -0.105052 0.0903347 
0.735936 -0.109206 0.0396413 
0.724207 -0.0866998 -0.0398406 
nan nan nan
0.748785 -0.0378414 -0.148855 
0.686595 -0.0537377 -0.138336 
0.685042 -0.0672946 -0.236922 
0.678694 -0.0632959 -0.299239 
0.658473 -0.0731722 -0.339131 
0.645075 -0.0786932 -0.381837 
0.634652 -0.100743 -0.406587 
0.589553 -0.0973687 -0.438176 
0.584909 -0.0668136 -0.470767 
0.590111 -0.0630913 -0.494289 
0.592758 -0.0724617 -0.524767 
0.637515 -0.0747075 -0.532618 
0.663201 -0.160038 -0.561487 
0.653893 -0.0680692 -0.546069 
0.650892 -0.0450199 -0.554136 
0.656022 -0.0162755 -0.55807 
0.666205 0.0341306 -0.55237 
0.68889 0.0685168 -0.54019 
0.737185 0.0826614 -0.523692 
0.757461 0.106537 -0.509205 
0.754515 0.0966745 -0.452812 
0.772112 0.101574 -0.449729 
0.809883 0.175245 -0.4824 
0.7784 0.178003 -0.452898 
0.742411 0.169504 -0.458209 
0.738734 0.190766 -0.489352 
0.755742 0.212381 -0.528087 
0.706326 0.203002 -0.525837 
0.664243 0.193119 -0.525264 
0.639791 0.212606 -0.536374 
0.638483 0.210043 -0.521146 
nan nan nan
0.622407 0.204582 -0.525855 
0.585619 0.164966 -0.507353 
nan nan nan
0.612674 0.214665 -0.565223 
nan nan nan
0.58244 0.222588 -0.583941 
0.55627 0.207794 -0.569784 
0.626919 0.28531 -0.654524 
0.486371 0.231793 -0.555423 
0.483026 0.297278 -0.608414 
nan nan nan
0.563305 0.307117 -0.74163 
0.501608 0.304515 -0.719596 
0.393101 0.290305 -0.660996 
0.396041 0.275337 -0.69303 
0.48654 0.250136 -0.816759 
0.535558 0.22066 -0.923934 
0.369506 0.209988 -0.80818 
0.334792 0.143231 -0.777939 
0.487534 0.1731 -0.980312 
0.369941 0.0827815 -0.892618 
0.3544 0.0366149 -0.929383 
0.325713 -0.0493234 -0.937966 
0.376153 -0.0761704 -1.04513 
0.212931 -0.128605 -0.964057 
0.187439 -0.212549 -0.965835 
0.161768 -0.269511 -0.948773 
0.108542 -0.316461 -0.951695 
0.107588 -0.37708 -0.935527 
0.130789 -0.380809 -0.849654 
0.0534947 -0.411128 -0.902278 
0.00525425 -0.406675 -0.91005 
0.050432 -0.426493 -0.853389 
0.0870134 -0.443204 -0.802617 
-0.0370874 -0.451787 -0.888082 
-0.0174264 -0.413376 -0.843671 
-0.0342699 -0.39527 -0.842137 
-0.0338287 -0.389942 -0.830175 
-0.0322469 -0.3784 -0.81642 
nan nan nan
-0.111867 -0.355566 -0.84649 
-0.0628165 -0.342095 -0.811993 
-0.107629 -0.32035 -0.837948 
-0.0348234 -0.285713 -0.767868 
-0.161784 -0.305626 -0.882012 
-0.172953 -0.265344 -0.900829 
-0.151571 -0.215988 -0.887257 
-0.221916 -0.184868 -0.886703 
-0.158561 -0.140966 -0.863132 
-0.0587904 -0.122027 -0.800137 
-0.219063 -0.124153 -0.853007 
-0.222392 -0.0917962 -0.843122 
-0.209996 -0.0353935 -0.84521 
-0.129473 0.0217304 -0.897968 
-0.260431 0.0127728 -0.821957 
-0.207625 0.051141 -0.833295 
-0.122771 0.120906 -0.913087 
-0.225045 0.120031 -0.778279 
-0.161929 0.196193 -0.797717 
-0.222465 0.201974 -0.745169 
-0.25246 0.234348 -0.708009 
-0.178193 0.321896 -0.827209 
-0.203047 0.306852 -0.678888 
-0.166677 0.308366 -0.703465 
-0.125411 0.321191 -0.745489 
-0.0845244 0.264131 -0.683952 
-0.039085 0.300729 -0.669252 
-0.0313465 0.327351 -0.622069 
0.0112518 0.335627 -0.602769 
0.0829969 0.3738 -0.693291 
0.103074 0.319407 -0.625508 
0.0983159 0.302856 -0.6359 
0.0963544 0.409425 -0.774696 
-0.00254099 0.353385 -0.601521 
0.0309635 0.508787 -0.732793 
-0.072087 0.424185 -0.583563 
-0.0930149 0.471132 -0.550192 
-0.0650886 0.594893 -0.671561 
-0.159103 0.492299 -0.503121 
-0.166984 0.526082 -0.512883 
-0.1769 0.566754 -0.5102 
-0.194742 0.595984 -0.504924 
-0.211139 0.613258 -0.489455 
-0.262632 0.609377 -0.471237 
-0.170361 0.677355 -0.512864 
-0.206494 0.646794 -0.497178 
-0.176878 0.670909 -0.485794 
-0.151227 0.688993 -0.477893 
nan nan nan
-0.199788 0.68176 -0.414367 
-0.226888 0.688094 -0.385676 
-0.218543 0.707578 -0.360466 
-0.228653 0.727639 -0.344721 
-0.264279 0.773162 -0.351582 
-0.202969 0.744872 -0.312174 
-0.181842 0.752928 -0.289121 
-0.167437 0.751751 -0.276011 
-0.141876 0.750908 -0.260258 
-0.10815 0.766982 -0.208917 
-0.0864122 0.72828 -0.145895 
-0.0692401 0.804922 -0.109741 
-0.0492191 0.715719 -0.0917005 
-0.0446252 0.709203 -0.0590727 
-0.0335833 0.847283 0.0386516 
-0.00190353 0.744829 0.0968023 
0.00602213 0.662041 0.162408 
0.0179737 0.677067 0.182923 
0.032501 0.660664 0.191405 
0.0500173 0.604368 0.221094 
0.0880268 0.594112 0.280358 
0.107204 0.667462 0.312924 
0.146976 0.624825 0.344367 
0.163961 0.683716 0.422836 
0.148076 0.751709 0.448504 
0.160631 0.671331 0.459385 
0.126145 0.715529 0.481125 
0.0921226 0.712046 0.487599 
0.0799873 0.633358 0.487138 
0.0260404 0.658509 0.470295 
0.0245447 0.798107 0.472911 
-0.0576295 0.663389 0.397106 
-0.108114 0.650646 0.386469 
-0.142593 0.63383 0.353211 
-0.168027 0.663012 0.336287 
-0.180148 0.653275 0.314011 
-0.164962 0.564237 0.317779 
-0.190693 0.633486 0.290342 
-0.219656 0.513626 0.250157 
-0.300927 0.676801 0.21691 
-0.298152 0.541855 0.138531 
-0.286598 0.560603 0.107413 
-0.276275 0.501527 0.0542055 
-0.295249 0.572155 0.0588961 
-0.269722 0.555473 0.0145822 
-0.311432 0.594101 0.00463433 
-0.333238 0.642502 0.0143728 
-0.359889 0.636881 -0.0405097 
nan nan nan
-0.382006 0.733126 -0.0640868 
-0.387886 0.666852 -0.134797 
-0.401745 0.655312 -0.16416 
-0.424467 0.663608 -0.138766 
-0.444611 0.663222 -0.131444 
-0.466335 0.659013 -0.141686 
-0.494417 0.707725 -0.0795769 
-0.492322 0.699385 -0.183037 
-0.51249 0.709706 -0.235518 
-0.529996 0.702099 -0.224589 
-0.536398 0.702552 -0.243368 
-0.560753 0.74118 -0.304121 
-0.553574 0.687411 -0.277279 
-0.562378 0.680529 -0.28477 
-0.566572 0.672436 -0.325602 
-0.574807 0.638471 -0.297172 
-0.574703 0.623567 -0.269427 
-0.585295 0.592921 -0.271924 
-0.605422 0.588638 -0.296024 
-0.588962 0.536365 -0.222256 
-0.595935 0.54396 -0.246723 
-0.630265 0.529303 -0.288303 
-0.580466 0.46136 -0.193869 
-0.593936 0.445012 -0.319105 
-0.577593 0.415968 -0.304543 
-0.597316 0.42957 -0.354174 
-0.579748 0.431122 -0.37722 
nan nan nan
-0.581218 0.405028 -0.478617 
-0.562839 0.365587 -0.481844 
-0.56067 0.347465 -0.46663 
-0.544835 0.317389 -0.430141 
nan nan nan
-0.51016 0.270636 -0.409642 
-0.487943 0.28509 -0.318346 
-0.465505 0.206518 -0.259991 
-0.481287 0.16466 -0.228018 
nan nan nan
-0.498487 0.0863686 -0.177498 
-0.527489 -0.0256803 -0.205669 
-0.521232 -0.106798 -0.204995 
nan nan nan
-0.55686 -0.164722 -0.262189 
-0.573087 -0.216609 -0.313966 
-0.572269 -0.358439 -0.230547 
-0.587489 -0.32477 -0.292127 
-0.611399 -0.336497 -0.406114 
-0.656507 -0.338548 -0.406215 
-0.683648 -0.39642 -0.335395 
-0.722852 -0.365098 -0.41934 
-0.762807 -0.326969 -0.349904 
-0.775378 -0.287986 -0.32084 
-0.78337 -0.277857 -0.346459 
-0.816189 -0.349599 -0.280555 
nan nan nan
-0.842426 -0.197954 -0.430239 
-0.890963 -0.355334 -0.343182 
-0.899042 -0.215865 -0.459598 
-0.923898 -0.187665 -0.447911 
-0.963894 -0.133096 -0.481463 
-0.934447 -0.131557 -0.492847 
-0.93231 -0.066017 -0.537028 
-0.95378 -0.102374 -0.529851 
-0.941305 -0.126797 -0.52725 
nan nan nan
-0.921924 -0.083797 -0.5571 
-0.905805 -0.0206178 -0.586996 
-0.84527 -0.0437712 -0.576095 
-0.824976 -0.0959982 -0.586151 
-0.801658 -0.114853 -0.609385 
-0.791219 -0.0525516 -0.653668 
-0.773724 -0.0550385 -0.683307 
-0.761691 -0.0707587 -0.692994 
-0.766328 -0.0792841 -0.727112 
-0.736415 -0.0789041 -0.734424 
-0.717598 -0.0540732 -0.764127 
-0.676557 -0.0371715 -0.774706 
-0.673197 0.0154203 -0.790448 
-0.680519 0.00799646 -0.826362 
nan nan nan
-0.567662 -0.0889005 -0.768796 
-0.581396 -0.0259018 -0.795513 
-0.596249 0.0401689 -0.839613 
-0.558891 0.00730745 -0.785383 
-0.527381 0.00809907 -0.712335 
-0.524162 0.0321406 -0.684769 
-0.531731 0.0728396 -0.6662 
-0.579642 0.13665 -0.681992 
-0.635985 0.206598 -0.724997 
-0.627944 0.15129 -0.667327 
-0.646215 0.151927 -0.649591 
-0.687559 0.197271 -0.642499 
-0.678582 0.153582 -0.592076 
-0.685615 0.154585 -0.584453 
-0.672724 0.127706 -0.549418 
-0.746388 0.207775 -0.587189 
-0.708802 0.173494 -0.540423 
-0.724817 0.20332 -0.541834 
-0.717702 0.179514 -0.506876 
-0.740833 0.211861 -0.49395 
-0.776846 0.252102 -0.481241 
-0.75905 0.200613 -0.452092 
-0.780953 0.244639 -0.427324 
nan nan nan
-0.770732 0.220197 -0.333777 
-0.798799 0.199986 -0.312531 
-0.8234 0.243823 -0.293334 
-0.821937 0.188182 -0.278239 
-0.849904 0.208609 -0.258246 
-0.861292 0.158917 -0.23845 
-0.876062 0.123643 -0.21146 
-0.885879 0.0932881 -0.190371 
-0.905131 0.0753682 -0.177462 
-0.951488 0.0521763 -0.081774 
-0.950254 0.0279805 0.00177258 
-0.882548 0.0181239 0.0252417 
-0.828951 0.00301224 0.073122 
-0.979948 -0.0108237 0.150339 
-0.925255 -0.0245014 0.203911 
-0.780286 -0.020665 0.242376 
-0.917244 -0.0331932 0.284576 
-0.938729 -0.0410284 0.324114 
-0.87596 -0.0269691 0.320643 
-0.879407 -0.0263006 0.328772 
-0.952258 -0.00861517 0.348706 
-0.905959 -0.0196396 0.33159 
-0.798556 -0.0208702 0.309691 
-0.859797 -0.0317757 0.30359 
-0.965459 -0.0326141 0.306205 
-0.823818 -0.06957 0.271374 
