-0.96456 -0.159958 0.46631 
-1.00609 -0.106868 0.430246 
-1.16277 -0.0719285 0.561741 
-1.05602 -0.0289232 0.37317 
-1.04695 0.0144294 0.408212 
-1.13058 0.0457401 0.581079 
-0.958959 0.0946967 0.383854 
-0.932426 0.129584 0.366201 
-0.903932 0.146777 0.420189 
-0.853604 0.140577 0.459455 
-0.811001 0.0746794 0.52568 
-0.870373 0.0684846 0.733291 
-0.69132 0.0490521 0.644057 
-0.663253 0.0246216 0.639092 
-0.631248 0.0300639 0.637914 
-0.6515 0.0250335 0.706735 
-0.609765 0.0310828 0.70568 
-0.64354 0.0535974 0.752726 
-0.621747 0.071374 0.755476 
-0.657075 0.079577 0.78401 
-0.591189 0.0916568 0.776112 
-0.560534 0.116623 0.798791 
-0.555848 0.141298 0.803898 
-0.578601 0.143612 0.826096 
-0.620402 0.135896 0.865618 
-0.592869 0.0950171 0.891493 
-0.477681 0.126617 0.919647 
-0.516315 0.139327 0.976798 
nan nan nan
-0.707736 0.00647547 1.05316 
-0.474813 -0.0720585 0.973378 
-0.450184 -0.0736866 0.983621 
-0.556062 -0.164309 0.977611 
-0.491681 -0.184468 0.945106 
-0.482146 -0.230421 0.914398 
-0.568594 -0.318978 0.941096 
-0.714309 -0.349426 1.00064 
-0.583262 -0.333525 0.885816 
-0.719121 -0.389432 0.947502 
-0.574363 -0.307262 0.761398 
-0.588117 -0.318911 0.752174 
nan nan nan
-0.581592 -0.33311 0.766506 
-0.528184 -0.312896 0.727016 
-0.53914 -0.317493 0.751627 
-0.494952 -0.326729 0.714823 
nan nan nan
-0.443889 -0.371402 0.725598 
-0.439612 -0.549461 0.821818 
-0.380798 -0.449848 0.668155 
-0.355178 -0.481817 0.621431 
-0.331643 -0.491333 0.585353 
-0.31802 -0.532662 0.552873 
-0.348421 -0.611129 0.555122 
-0.31702 -0.533746 0.473498 
-0.310255 -0.597821 0.491739 
-0.285579 -0.676948 0.497767 
-0.246406 -0.638242 0.442108 
-0.248406 -0.722244 0.48023 
-0.193554 -0.72622 0.457345 
-0.177564 -0.76819 0.455445 
-0.136006 -0.76984 0.451373 
-0.098187 -0.821115 0.461468 
-0.034321 -0.829147 0.467832 
-0.00879997 -0.865977 0.483163 
-0.00351387 -0.867002 0.49014 
6.62479e-05 -0.800243 0.493732 
0.0078825 -0.797166 0.544011 
-0.0123953 -0.929041 0.728833 
0.0330161 -0.797418 0.627928 
0.0434849 -0.80015 0.682188 
0.0647186 -0.800234 0.717551 
0.0967978 -0.727207 0.69774 
0.0999499 -0.704293 0.766258 
0.111929 -0.667446 0.757678 
0.121629 -0.621619 0.742487 
0.172319 -0.658156 0.811896 
0.211054 -0.696246 0.819038 
0.262397 -0.675692 0.797823 
0.296989 -0.754881 0.906003 
0.371714 -0.73111 0.754321 
0.443434 -0.728965 0.715746 
0.489898 -0.702047 0.660176 
0.500741 -0.689203 0.683128 
0.534553 -0.639807 0.685548 
0.564925 -0.607886 0.677549 
0.616802 -0.613613 0.814704 
0.623706 -0.502111 0.574505 
0.616699 -0.46776 0.5812 
0.591416 -0.419237 0.597042 
0.58777 -0.376337 0.615229 
nan nan nan
0.584618 -0.308353 0.635363 
0.629677 -0.32359 0.786581 
0.503203 -0.225935 0.660811 
0.458175 -0.23171 0.707792 
0.429529 -0.215318 0.709503 
0.406973 -0.257577 0.754955 
0.375551 -0.326942 0.81725 
0.36438 -0.275338 0.754491 
0.356018 -0.308637 0.763929 
0.342041 -0.360171 0.735308 
0.325412 -0.421662 0.701252 
0.339228 -0.414834 0.571542 
0.272348 -0.563947 0.573077 
0.298786 -0.451244 0.565169 
0.292042 -0.412431 0.561488 
0.273091 -0.423247 0.554327 
0.278514 -0.365204 0.529422 
0.218513 -0.38311 0.567384 
0.169719 -0.351863 0.607438 
0.125246 -0.327053 0.644186 
0.0968954 -0.320726 0.651492 
0.0436738 -0.335514 0.71506 
-0.00471928 -0.363165 0.902479 
-0.040769 -0.306054 0.903438 
-0.030417 -0.0698374 0.731001 
-0.0991772 -0.113951 0.787623 
-0.150345 -0.219953 0.851864 
nan nan nan
-0.226233 -0.0837045 0.742822 
-0.242524 -0.0858672 0.740813 
-0.27186 -0.0277954 0.661639 
-0.323469 -0.018218 0.681515 
nan nan nan
-0.336867 -0.00455795 0.691584 
-0.295074 0.0727828 0.599749 
-0.282927 0.131044 0.594195 
nan nan nan
-0.267277 0.197293 0.665132 
-0.257014 0.225445 0.606513 
-0.305086 0.289198 0.755439 
-0.195711 0.274027 0.570832 
-0.187425 0.284927 0.77424 
-0.111807 0.297938 0.574345 
-0.102148 0.369341 0.568653 
nan nan nan
-0.0865566 0.482354 0.449588 
nan nan nan
-0.107314 0.557164 0.369703 
-0.0916662 0.559603 0.342708 
-0.0560056 0.585293 0.316542 
0.0508491 0.76319 0.390887 
-0.00270928 0.680698 0.281641 
0.00859342 0.691744 0.28274 
-0.0141103 0.615223 0.218009 
-0.00957258 0.63162 0.192788 
0.0301463 0.759942 0.234003 
-0.00529349 0.689439 0.137863 
-0.0142544 0.689293 0.100991 
-0.0305251 0.703292 0.054106 
-0.0245398 0.691309 -0.00149384 
-0.0119291 0.702836 -0.061533 
0.00258378 0.696269 -0.139986 
-0.0171817 0.686305 -0.208493 
-0.0349659 0.687603 -0.224957 
-0.123377 0.789081 -0.238488 
-0.143761 0.787453 -0.212971 
-0.189019 0.795086 -0.225389 
-0.27436 0.818035 -0.222041 
-0.338089 0.85952 -0.230707 
-0.438847 0.960137 -0.311157 
-0.460769 1.00097 -0.292778 
-0.426554 0.915675 -0.166389 
-0.418596 0.898945 -0.145905 
-0.405816 0.89105 -0.0976182 
-0.428519 0.898099 -0.0729755 
-0.543627 1.04166 -0.15055 
-0.507253 0.921463 0.018766 
-0.552373 0.953517 0.0152974 
-0.590218 0.965637 0.0224393 
-0.647569 1.01704 0.0175939 
-0.599326 0.898043 0.0832746 
-0.57644 0.887878 0.0860646 
-0.549132 0.880658 0.105788 
-0.507239 0.779542 0.162153 
-0.495463 0.734978 0.183498 
-0.527408 0.674098 0.208821 
-0.642101 0.615941 0.277214 
-0.607075 0.495552 0.128693 
-0.594717 0.413474 0.0802811 
-0.567355 0.397694 0.0905754 
-0.492233 0.396147 0.113781 
-0.425786 0.360899 0.108222 
-0.353167 0.342055 0.110429 
-0.303164 0.334854 0.069675 
-0.235974 0.342702 0.0331548 
-0.197422 0.320071 -0.0185271 
-0.094156 0.365068 -0.091189 
-0.128636 0.269518 -0.124896 
-0.132567 0.247337 -0.123943 
-0.0875844 0.251421 -0.09668 
0.0916393 0.265128 -0.1048 
0.104933 0.249535 -0.0770312 
0.0187013 0.206216 0.0177019 
-0.0205121 0.136811 0.0676444 
-0.0127198 0.106097 0.106656 
0.0534723 0.106812 0.130624 
0.0267026 0.0583263 0.143746 
0.0234698 0.0305005 0.128537 
0.0210246 -0.0121422 0.110299 
0.0548994 -0.0527031 0.0940215 
0.138493 -0.0889332 0.0614719 
0.176758 -0.107601 0.0591451 
0.2358 -0.160698 0.0370568 
0.291887 -0.230952 0.0232667 
0.321653 -0.263675 0.0262117 
nan nan nan
0.438415 -0.353025 0.0334569 
0.507369 -0.396469 0.0708328 
0.531392 -0.381682 0.110038 
0.568868 -0.39612 0.195156 
0.583904 -0.378462 0.234841 
0.604052 -0.295192 0.296593 
0.618864 -0.269077 0.311741 
0.637275 -0.185933 0.364304 
0.665973 -0.08357 0.405709 
0.70207 0.00352171 0.423402 
0.662894 0.0712855 0.374365 
0.60886 0.128494 0.358754 
0.583584 0.167581 0.379782 
0.780536 0.213101 0.554846 
0.596669 0.209656 0.454154 
0.571153 0.230688 0.480039 
0.636601 0.268578 0.502587 
0.667305 0.299402 0.499248 
0.740401 0.278135 0.496713 
0.783259 0.289191 0.492994 
0.795423 0.283576 0.470215 
0.76153 0.278442 0.370404 
0.80141 0.31274 0.365129 
0.911299 0.473456 0.490651 
0.82899 0.360795 0.326955 
0.79646 0.341683 0.280293 
0.884681 0.506542 0.419876 
0.784245 0.418682 0.290651 
0.700844 0.390876 0.243177 
0.678298 0.44515 0.251839 
0.709974 0.573249 0.318478 
0.603081 0.476969 0.233251 
0.70319 0.592885 0.323967 
0.553786 0.473129 0.210933 
0.478238 0.472731 0.181617 
0.445378 0.470194 0.166197 
0.478033 0.552457 0.189838 
0.537222 0.698161 0.278628 
0.413221 0.665498 0.14153 
0.384106 0.753181 0.131356 
0.315786 0.808621 0.0811678 
0.255997 0.897698 0.0677081 
0.188963 0.953478 0.044897 
0.186164 1.0101 0.0443262 
0.107333 1.01893 0.0176089 
0.129262 1.25518 0.0910984 
-0.00920419 1.14365 0.0028008 
-0.0196548 1.21179 0.0559502 
-0.0691101 1.17071 -0.0363067 
-0.0919512 1.21812 -0.0185063 
-0.140973 1.24119 -0.0501555 
-0.207438 1.27349 -0.0158336 
-0.221276 1.22532 -0.068692 
-0.332256 1.41736 0.191089 
-0.325222 1.30626 0.0375875 
-0.40315 1.37478 0.130196 
-0.355616 1.30141 0.0394344 
-0.324162 1.25234 -0.00114333 
-0.39899 1.33022 0.099805 
-0.280826 1.21127 0.0227291 
-0.274969 1.19942 0.0799091 
-0.249022 1.15266 0.0791679 
-0.247004 1.10794 0.121008 
-0.301288 1.15235 0.200839 
-0.261129 1.07779 0.133665 
-0.270313 1.08138 0.164162 
-0.274166 1.0968 0.218281 
-0.233694 1.05632 0.208319 
-0.21627 1.07815 0.261907 
-0.187025 1.10494 0.296464 
-0.152963 1.10908 0.296899 
-0.0976139 1.18816 0.349981 
-0.0264626 1.33585 0.419251 
-0.0083897 1.09932 0.347459 
-0.003219 1.06889 0.369046 
0.0150359 1.08671 0.343 
0.0839399 1.16399 0.336012 
0.122893 1.16185 0.318487 
0.160356 1.30361 0.379435 
0.15859 1.12815 0.314543 
0.194237 1.12737 0.32245 
0.210286 1.0363 0.275465 
0.317045 1.16624 0.311911 
0.251307 1.0206 0.263492 
nan nan nan
0.407671 1.0965 0.245975 
0.405308 0.999105 0.14871 
0.412825 1.05351 0.129825 
0.403062 1.0689 0.0716839 
0.400288 1.06605 0.0164344 
0.43318 1.14114 -0.0319181 
0.253485 0.96281 -0.14067 
0.269853 0.974516 -0.14836 
0.285821 0.912792 -0.173195 
0.328704 0.877466 -0.175405 
0.469537 0.934735 -0.148582 
0.363603 0.768893 -0.147969 
0.431306 0.751801 -0.115527 
0.48043 0.775677 -0.0515974 
0.595705 0.85535 0.0281333 
0.529731 0.711353 -0.0574969 
0.661338 0.76221 0.0098529 
0.530507 0.582915 -0.142322 
0.584698 0.556817 -0.119607 
0.765951 0.583352 -0.0248043 
0.644378 0.482894 -0.0886158 
0.722059 0.442921 -0.0246258 
0.685371 0.345029 -0.00988293 
0.635944 0.253376 -0.000916608 
0.614055 0.196264 -0.0132806 
0.649517 0.132342 -0.0235504 
0.701406 0.111459 0.00300041 
0.662094 0.0130466 -0.0600169 
0.622048 0.0104988 -0.0982181 
0.777305 -0.0302773 -0.191486 
0.646686 0.026798 -0.254917 
0.604123 0.0852068 -0.308337 
nan nan nan
0.481694 0.0196746 -0.395682 
0.419469 0.0700714 -0.401645 
0.384178 0.089311 -0.454105 
0.365425 0.102122 -0.518742 
0.362374 0.13666 -0.558277 
0.370119 0.151139 -0.625002 
0.362123 0.162079 -0.658807 
0.34027 0.136096 -0.665943 
0.349311 0.0664716 -0.673405 
0.373471 0.0338227 -0.720785 
0.379536 0.0342451 -0.770383 
0.420548 0.0753911 -0.857823 
0.418825 0.123424 -0.806867 
0.485942 0.0496304 -0.90229 
0.528148 0.0495238 -0.887171 
0.554509 0.0336456 -0.82663 
0.587318 -0.0103558 -0.78488 
0.631628 -0.0613316 -0.746892 
0.700105 -0.105727 -0.736562 
0.741633 -0.0869277 -0.664243 
0.719102 -0.0464383 -0.565118 
0.730593 -0.0103229 -0.527421 
0.740487 -0.00443005 -0.52718 
0.686893 -0.0262202 -0.517584 
0.640062 -0.0674645 -0.518638 
0.625537 -0.0982646 -0.555841 
0.642552 -0.161898 -0.63425 
0.61896 -0.153857 -0.613553 
0.628245 -0.133931 -0.569132 
0.607334 -0.173336 -0.546292 
0.590381 -0.171713 -0.508501 
nan nan nan
0.570082 -0.172521 -0.574283 
0.54537 -0.142256 -0.599744 
nan nan nan
0.542233 -0.254816 -0.837344 
nan nan nan
0.531255 -0.260039 -0.829874 
0.503695 -0.205792 -0.79631 
0.573959 -0.333106 -0.902324 
0.483399 -0.227998 -0.720261 
0.493698 -0.357678 -0.71925 
nan nan nan
0.5162 -0.414078 -0.705125 
0.445556 -0.320145 -0.564505 
0.388046 -0.240138 -0.474277 
0.360064 -0.231125 -0.492765 
0.326297 -0.234702 -0.510172 
0.268094 -0.316667 -0.564194 
0.167819 -0.155361 -0.452784 
0.12291 -0.116798 -0.442826 
0.133269 -0.128938 -0.587727 
0.0709007 -0.0722784 -0.471515 
0.0276724 -0.0308649 -0.513924 
-0.0405789 0.126531 -0.526156 
-0.0431591 0.151961 -0.657351 
-0.114592 0.177724 -0.532845 
-0.150171 0.219145 -0.581247 
-0.143473 0.283895 -0.615152 
-0.165698 0.29444 -0.622893 
-0.145461 0.349898 -0.652779 
-0.145285 0.381541 -0.702599 
-0.145948 0.414216 -0.645741 
-0.146886 0.462784 -0.667694 
-0.136615 0.494717 -0.7829 
-0.225229 0.586679 -0.966923 
-0.104978 0.466229 -0.841815 
-0.100678 0.450724 -0.887732 
-0.116535 0.419038 -0.903138 
-0.10995 0.409134 -0.924176 
-0.172566 0.411764 -0.977596 
nan nan nan
-0.214309 0.398113 -0.920303 
-0.276627 0.416345 -0.923993 
-0.296954 0.404837 -0.841581 
-0.399839 0.451928 -0.956766 
-0.318778 0.401265 -0.715678 
-0.332887 0.367675 -0.664651 
-0.338322 0.32513 -0.646723 
-0.341971 0.28499 -0.623322 
-0.37563 0.235437 -0.716938 
-0.41214 0.259981 -0.876976 
-0.381016 0.186129 -0.657192 
-0.385789 0.156453 -0.658095 
-0.393092 0.0873707 -0.7236 
-0.451735 -0.0117238 -0.91315 
-0.355487 0.00733747 -0.763022 
-0.343266 -0.00276885 -0.825674 
-0.348735 -0.00740052 -0.937527 
-0.264892 -0.0585342 -0.817335 
-0.247948 -0.0791064 -0.852861 
-0.234808 -0.14342 -0.841719 
-0.22875 -0.227252 -0.840576 
-0.290261 -0.390035 -0.986614 
-0.195381 -0.304726 -0.861021 
-0.176538 -0.273642 -0.860046 
-0.164932 -0.263243 -0.893292 
-0.0806785 -0.194795 -0.888475 
-0.00127549 -0.217199 -0.91226 
0.0607839 -0.215895 -0.903935 
0.116684 -0.20448 -0.906828 
0.150531 -0.246486 -0.923791 
0.137048 -0.168486 -0.914341 
0.0886554 -0.174603 -0.92627 
0.00359321 -0.325563 -1.06514 
0.0172213 -0.37336 -0.888688 
-0.0199704 -0.500758 -0.952688 
-0.0141099 -0.448697 -0.813223 
-0.0726328 -0.479695 -0.783938 
-0.120319 -0.567141 -0.909718 
-0.124606 -0.498457 -0.736412 
-0.143358 -0.525897 -0.742895 
-0.146655 -0.540559 -0.741992 
-0.165711 -0.582001 -0.74633 
-0.167741 -0.636545 -0.73474 
-0.147237 -0.627493 -0.687979 
-0.214658 -0.796313 -0.830744 
-0.145313 -0.634755 -0.683023 
-0.12574 -0.6467 -0.675211 
-0.0945022 -0.692053 -0.67718 
nan nan nan
-0.0143564 -0.729304 -0.665342 
0.0154701 -0.745379 -0.664876 
0.0388871 -0.782833 -0.677664 
0.0274487 -0.858556 -0.65544 
0.0529123 -0.847195 -0.606082 
0.0672886 -0.880557 -0.578007 
0.0954383 -0.870422 -0.543859 
0.114265 -0.864385 -0.532462 
0.162344 -0.805152 -0.46681 
0.165083 -0.822578 -0.421774 
0.203153 -0.77956 -0.309775 
0.18908 -0.804688 -0.260911 
0.181496 -0.788589 -0.236736 
0.173924 -0.803601 -0.211193 
0.135248 -0.978222 -0.195463 
0.203335 -0.832462 -0.0928626 
0.216444 -0.791927 -0.03788 
0.220556 -0.835767 -0.0261433 
0.242022 -0.825756 -0.0257687 
0.255092 -0.80227 -0.00980866 
0.298684 -0.780468 0.015804 
0.338588 -0.781678 0.0353669 
0.399259 -0.744498 0.0383412 
0.449502 -0.722446 0.0901507 
0.453165 -0.741565 0.124493 
0.499818 -0.688793 0.124699 
0.47112 -0.675641 0.202139 
0.399943 -0.698627 0.257841 
0.378032 -0.672439 0.258742 
0.327496 -0.743119 0.261233 
0.355897 -0.947826 0.330675 
0.244956 -0.842352 0.206092 
0.200598 -0.835148 0.172176 
0.136207 -0.877305 0.140531 
0.0848371 -0.936431 0.142727 
0.0423662 -0.967804 0.133584 
0.0270825 -0.910321 0.106976 
-0.049517 -0.922711 0.0994903 
-0.0619573 -0.855368 0.0600325 
-0.142549 -0.871817 0.082125 
-0.108815 -0.774327 0.025353 
-0.0926381 -0.692581 -0.0237933 
-0.0649894 -0.612262 -0.0933089 
-0.0554676 -0.594852 -0.145037 
-0.0505463 -0.575868 -0.177686 
-0.0723049 -0.598897 -0.198935 
-0.109797 -0.645891 -0.225759 
-0.14771 -0.663249 -0.24468 
nan nan nan
-0.180208 -0.766353 -0.326316 
-0.16572 -0.740379 -0.294189 
-0.187421 -0.754964 -0.283118 
-0.208775 -0.780172 -0.27555 
-0.232396 -0.810275 -0.292591 
-0.265923 -0.910257 -0.295607 
-0.298677 -1.11935 -0.359005 
-0.268449 -1.01605 -0.232413 
-0.29192 -1.03621 -0.194607 
-0.300359 -1.09298 -0.153136 
-0.313019 -1.09298 -0.118409 
-0.325142 -1.01855 -0.0673519 
-0.348833 -1.0593 -0.101623 
-0.376472 -1.01467 -0.110885 
-0.388149 -1.00527 -0.149301 
-0.424735 -1.03543 -0.193924 
-0.458013 -1.0549 -0.232778 
-0.489769 -1.00314 -0.231946 
-0.498739 -0.896342 -0.187186 
-0.524404 -0.904192 -0.20409 
-0.52745 -0.828878 -0.194558 
-0.524801 -0.786365 -0.219434 
-0.587094 -0.960177 -0.397352 
-0.572724 -0.75169 -0.354616 
-0.592912 -0.729253 -0.393199 
-0.558079 -0.689388 -0.401764 
-0.570557 -0.7105 -0.442576 
nan nan nan
-0.609553 -0.599311 -0.532392 
-0.605422 -0.560468 -0.516938 
-0.578936 -0.566501 -0.512441 
-0.568061 -0.534836 -0.530342 
nan nan nan
-0.485435 -0.462313 -0.449734 
-0.461688 -0.454797 -0.414411 
-0.469733 -0.377709 -0.322995 
-0.464194 -0.365028 -0.263199 
nan nan nan
-0.464498 -0.337909 -0.0991195 
-0.491108 -0.274358 -0.0159234 
-0.529376 -0.222359 -0.00736743 
nan nan nan
-0.496821 -0.093535 0.015966 
-0.500479 -0.0292567 0.0378068 
-0.516574 -0.0394789 -0.134628 
-0.52705 -0.0406074 -0.0572626 
-0.576606 0.0192031 -0.0377644 
-0.609438 0.0278698 -0.0272584 
-0.623945 0.00904923 -0.0200228 
-0.610767 0.0239282 0.0382776 
-0.604114 -0.00774294 0.0374985 
-0.632337 -0.0413671 0.0182685 
-0.660834 -0.0162918 0.0102607 
-0.727369 -0.0409702 -0.0270248 
nan nan nan
-0.814633 0.0255639 -0.0622029 
-0.979999 -0.0723724 -0.168665 
-0.90946 0.0730904 -0.062232 
-0.928241 0.0789252 -0.0455214 
-0.93989 0.0951298 -0.0941758 
-0.981547 0.0885967 -0.173499 
-0.974611 0.131379 -0.18922 
-0.998294 0.156677 -0.1952 
-1.06243 0.154668 -0.237011 
nan nan nan
-1.05243 0.145272 -0.243019 
-1.02511 0.143556 -0.243474 
-1.03605 0.0920304 -0.291594 
-1.04329 0.0249086 -0.34227 
-0.993697 -0.0132416 -0.355365 
-0.913647 -0.0124766 -0.360624 
-0.905419 0.0191798 -0.396177 
-0.875423 0.0396793 -0.401456 
-0.824706 0.0701071 -0.381788 
-0.788862 0.0793624 -0.41212 
-0.777748 0.110858 -0.429121 
-0.773661 0.125709 -0.472967 
-0.767214 0.147807 -0.473189 
-0.788643 0.173987 -0.488905 
nan nan nan
-0.944676 0.0962127 -0.663655 
-0.865975 0.17391 -0.597397 
-0.861152 0.226401 -0.561818 
-0.861831 0.155471 -0.643262 
-0.875848 -0.00542162 -0.766453 
-0.820826 -0.0163791 -0.763063 
-0.783733 -0.0788802 -0.758967 
-0.705082 -0.15689 -0.667148 
-0.67651 -0.195276 -0.586376 
-0.797908 -0.223528 -0.632781 
-0.82981 -0.231051 -0.622579 
-0.785161 -0.265239 -0.555809 
-0.866881 -0.28411 -0.579956 
-0.894541 -0.335284 -0.574164 
-0.977216 -0.337112 -0.580453 
-0.816118 -0.315941 -0.384532 
-0.883976 -0.374137 -0.42517 
-0.836908 -0.356559 -0.371303 
-0.886309 -0.381951 -0.373651 
-0.868387 -0.434431 -0.320475 
-0.853591 -0.46096 -0.282362 
-0.864629 -0.486424 -0.272756 
-0.816175 -0.522652 -0.219155 
nan nan nan
-0.810709 -0.627936 -0.169648 
-0.768756 -0.598168 -0.0753076 
-0.759277 -0.598348 -0.0137488 
-0.80842 -0.593602 0.0149198 
-0.824879 -0.577604 0.0548507 
-0.877831 -0.542477 0.0679865 
-0.917302 -0.466215 0.0677833 
-0.944677 -0.420353 0.0663004 
-0.950321 -0.394363 0.0953361 
-0.970209 -0.335576 0.153066 
-0.97014 -0.316787 0.184914 
-0.995307 -0.322627 0.265458 
-1.05461 -0.311432 0.443075 
-0.919909 -0.273724 0.344928 
-0.893414 -0.229327 0.437217 
-0.921544 -0.15191 0.613421 
-0.794843 -0.202333 0.446248 
-0.766812 -0.209558 0.43721 
-0.800462 -0.238638 0.478306 
-0.78459 -0.242846 0.480445 
-0.75059 -0.25279 0.44544 
-0.772716 -0.258228 0.492467 
-0.917899 -0.266647 0.682276 
-0.854456 -0.29479 0.607992 
-0.823003 -0.27846 0.531331 
-1.04257 -0.19751 0.684202 
