0.652055 -0.314135 0.355913 
0.671884 -0.278126 0.350066 
0.841053 -0.34276 0.467163 
0.727374 -0.184744 0.307673 
0.701926 -0.167623 0.359417 
0.813217 -0.251689 0.526915 
0.647118 -0.114893 0.391611 
0.631288 -0.0943841 0.40457 
0.631033 -0.104687 0.470227 
0.590024 -0.0927179 0.46742 
0.575824 -0.183636 0.506624 
0.676267 -0.287099 0.685785 
0.512155 -0.227188 0.606978 
0.483301 -0.259559 0.619907 
0.450538 -0.255392 0.62011 
0.495905 -0.280184 0.693337 
0.437669 -0.257971 0.674644 
0.490931 -0.244793 0.725743 
0.441401 -0.214616 0.73056 
0.494738 -0.227295 0.772395 
0.406107 -0.208853 0.736502 
0.390886 -0.191235 0.771117 
0.372329 -0.164656 0.796388 
0.389668 -0.186597 0.837059 
0.442454 -0.235868 0.878343 
0.436204 -0.280266 0.868077 
0.32404 -0.225527 0.83933 
0.388703 -0.267711 0.907157 
nan nan nan
0.49125 -0.397939 0.948592 
0.259553 -0.37897 0.88766 
0.233315 -0.374067 0.896216 
0.371319 -0.450468 0.881374 
0.256794 -0.451796 0.843697 
0.235826 -0.479785 0.812812 
0.330621 -0.549913 0.824455 
0.449488 -0.589949 0.853839 
0.301775 -0.525633 0.790868 
0.484951 -0.586799 0.817483 
0.305675 -0.48316 0.687121 
0.338851 -0.490645 0.672419 
nan nan nan
0.361399 -0.51331 0.671295 
0.295907 -0.480202 0.647339 
0.352623 -0.521705 0.670545 
0.275147 -0.527187 0.63806 
nan nan nan
0.228788 -0.571245 0.641839 
0.319971 -0.806115 0.686635 
0.124085 -0.598476 0.640242 
0.0783877 -0.627366 0.618918 
0.0517707 -0.630206 0.570181 
0.0407582 -0.683537 0.505991 
0.0471842 -0.780905 0.517419 
0.050645 -0.671356 0.433015 
0.0397738 -0.744515 0.43966 
0.00118951 -0.827418 0.451193 
0.0123602 -0.779896 0.350829 
-0.0335191 -0.879203 0.422193 
-0.0739002 -0.854531 0.354617 
-0.106307 -0.862148 0.334646 
-0.131105 -0.830414 0.308679 
-0.176527 -0.830479 0.323143 
-0.228774 -0.785466 0.308515 
-0.272037 -0.822867 0.313849 
-0.271341 -0.82062 0.305452 
-0.248466 -0.690634 0.29726 
-0.263858 -0.68528 0.33691 
-0.353999 -0.912606 0.472154 
-0.316129 -0.684244 0.404628 
-0.329029 -0.703425 0.436903 
-0.359034 -0.742745 0.481189 
-0.362564 -0.682523 0.48136 
-0.387949 -0.697095 0.565726 
-0.371431 -0.662267 0.576672 
-0.349084 -0.62987 0.559615 
-0.403734 -0.689932 0.642965 
-0.461832 -0.71773 0.628963 
-0.491066 -0.662034 0.593648 
-0.553697 -0.771735 0.709185 
-0.584086 -0.683707 0.575338 
-0.663105 -0.65521 0.568951 
-0.706559 -0.604168 0.528918 
-0.709591 -0.595401 0.580889 
-0.720244 -0.553762 0.608804 
-0.740905 -0.520709 0.635999 
-0.773232 -0.555154 0.777996 
-0.761034 -0.38369 0.53666 
-0.736044 -0.370418 0.562059 
-0.714094 -0.346754 0.597456 
-0.708951 -0.296716 0.611889 
nan nan nan
-0.741291 -0.267823 0.653925 
-0.754088 -0.366912 0.87176 
-0.680805 -0.219348 0.662666 
-0.660356 -0.25977 0.779916 
-0.597614 -0.203911 0.697463 
-0.591598 -0.231428 0.726384 
-0.557041 -0.312965 0.789107 
-0.525722 -0.245482 0.690696 
-0.518399 -0.28546 0.710899 
-0.533544 -0.389285 0.737589 
-0.54762 -0.476285 0.756487 
-0.535182 -0.460287 0.597238 
-0.518752 -0.598518 0.864821 
-0.515786 -0.50529 0.677409 
-0.502514 -0.451951 0.59533 
-0.479211 -0.444474 0.608651 
-0.451999 -0.393304 0.540476 
-0.383928 -0.454049 0.681975 
-0.345542 -0.413182 0.64793 
-0.322506 -0.368092 0.637855 
-0.297685 -0.362544 0.608592 
-0.269665 -0.341411 0.656793 
-0.221186 -0.340688 0.849153 
-0.172528 -0.299801 0.820986 
-0.0930037 -0.219802 0.556563 
-0.0666598 -0.262919 0.668018 
-0.0755173 -0.338064 0.784661 
nan nan nan
0.0267024 -0.300174 0.675686 
0.0367216 -0.315215 0.679195 
0.117544 -0.250113 0.568817 
0.156239 -0.255136 0.632019 
nan nan nan
0.144354 -0.22036 0.689067 
0.145386 -0.10577 0.560489 
0.14357 -0.0461941 0.590658 
nan nan nan
0.11794 -0.0185264 0.745963 
0.151812 0.0357764 0.692542 
0.132898 0.0121638 0.904025 
0.136519 0.0830704 0.643577 
0.0323052 0.0216851 0.877012 
0.0343746 0.101267 0.644211 
0.0179565 0.169263 0.658594 
nan nan nan
0.0605567 0.311659 0.581192 
nan nan nan
0.0399252 0.426286 0.493144 
0.0200023 0.453245 0.46615 
-0.0359018 0.46964 0.451574 
-0.182757 0.519099 0.620476 
-0.127978 0.503538 0.525767 
-0.125562 0.502429 0.519275 
-0.077516 0.482888 0.417128 
-0.103719 0.506779 0.396506 
-0.26434 0.546635 0.612889 
-0.14121 0.567832 0.36152 
-0.142081 0.56602 0.318732 
-0.132197 0.572024 0.271171 
-0.150593 0.561797 0.226352 
-0.139434 0.589171 0.172815 
-0.151721 0.598914 0.129508 
-0.133273 0.622825 0.0721899 
-0.120893 0.623194 0.0603625 
-0.0939978 0.705395 0.0235732 
-0.104244 0.694523 0.0128403 
-0.13324 0.719187 -0.012948 
-0.100326 0.754663 -0.0341162 
-0.0551091 0.825182 -0.0725473 
-0.0454578 0.94964 -0.13348 
-0.0181359 0.958792 -0.127945 
0.050902 0.844691 -0.0802098 
0.0760455 0.812461 -0.0745753 
0.12469 0.751344 -0.0774733 
0.15379 0.74476 -0.0839742 
0.189626 0.962003 -0.110675 
0.264261 0.688584 -0.115396 
0.265334 0.75816 -0.107665 
0.308017 0.811754 -0.0994474 
0.318823 0.955551 -0.0825898 
0.352533 0.732925 -0.0560208 
0.331368 0.738466 -0.013698 
0.330632 0.774185 0.0604807 
0.314358 0.690298 0.10266 
0.298905 0.671558 0.155364 
0.337305 0.674695 0.199174 
0.468611 0.71204 0.243911 
0.417059 0.514498 0.172033 
0.484788 0.402977 0.109606 
0.451193 0.384726 0.113859 
0.39005 0.380788 0.124338 
0.336007 0.337785 0.126159 
0.268506 0.301461 0.162102 
0.215124 0.287178 0.0933496 
0.137991 0.286072 0.0574686 
0.0877791 0.256855 0.0201983 
-0.00533667 0.27469 -0.15265 
0.00175063 0.168556 0.055775 
0.00216393 0.136836 0.0861774 
-0.0269715 0.135513 0.0404828 
-0.0998341 0.176131 -0.15056 
-0.131554 0.152721 -0.153848 
-0.116016 0.0653149 -0.0455853 
-0.145219 0.0090554 0.00837589 
-0.178026 -0.0213393 0.0524518 
-0.218542 0.0229842 -0.0373708 
-0.234804 0.0136889 0.00873034 
-0.25692 0.0457805 0.0260869 
-0.290474 0.090457 0.0694227 
-0.348387 0.0820217 0.0915467 
-0.40705 0.0510441 0.0984227 
-0.444381 0.00898271 0.110609 
-0.493764 -0.0581671 0.0831691 
-0.535329 -0.164719 0.0502446 
-0.574638 -0.196068 0.0581158 
nan nan nan
-0.654284 -0.266707 0.0723389 
-0.688465 -0.320475 0.0949237 
-0.752098 -0.294127 0.108057 
-0.782697 -0.330827 0.193085 
-0.821068 -0.301339 0.227587 
-0.830186 -0.198331 0.301 
-0.834709 -0.172411 0.319441 
-0.829327 -0.120638 0.403838 
-0.843313 -0.0818248 0.467604 
-0.865506 -0.0189294 0.498579 
-0.864198 0.0357177 0.483318 
-0.856158 0.065817 0.496567 
-0.83642 0.0941593 0.548441 
-1.08673 0.235914 0.64398 
-0.88146 0.10714 0.622079 
-0.842597 0.101471 0.643391 
-0.873714 0.15278 0.659015 
-0.823653 0.183963 0.653888 
-0.936269 0.229486 0.621185 
-0.928377 0.255337 0.61081 
-0.927379 0.262153 0.592624 
-0.789254 0.227264 0.581509 
-0.828176 0.295363 0.600577 
-0.953684 0.438497 0.652515 
-0.780932 0.35244 0.598616 
-0.694254 0.287557 0.550424 
-0.93084 0.447431 0.600534 
-0.778752 0.342085 0.532908 
-0.745819 0.276237 0.444839 
-0.790328 0.342653 0.402886 
-0.8923 0.500911 0.445116 
-0.749589 0.369461 0.355449 
-0.877476 0.527581 0.440703 
-0.734515 0.370382 0.326109 
-0.66012 0.364678 0.282152 
-0.615244 0.362018 0.254248 
-0.638571 0.459915 0.308724 
-0.751996 0.638544 0.43391 
-0.576128 0.554302 0.301997 
-0.554111 0.658686 0.318458 
-0.491105 0.703015 0.315192 
-0.433352 0.804802 0.328905 
-0.373194 0.833342 0.354951 
-0.369989 0.945599 0.393657 
-0.2989 0.88301 0.435084 
-0.231194 1.12632 0.414681 
-0.122253 0.910254 0.501826 
-0.0632251 1.01396 0.44463 
-0.023165 0.912212 0.52823 
0.0268198 0.960523 0.488862 
0.0741043 0.944943 0.517586 
0.144564 1.00218 0.473033 
0.197134 0.842422 0.521662 
0.189247 1.1215 0.420111 
0.24461 1.01836 0.460985 
0.216717 1.1482 0.411051 
0.20589 1.04528 0.472875 
0.192237 0.983583 0.52576 
0.207542 1.17836 0.396322 
0.136792 0.983306 0.479803 
0.127031 1.01219 0.403372 
0.105146 0.94018 0.394411 
0.0991636 0.934349 0.353274 
0.126329 1.05942 0.298713 
0.13663 0.914425 0.315495 
0.135775 0.940686 0.26938 
0.128795 1.01025 0.220874 
0.0897356 0.91331 0.240432 
0.0660239 0.947147 0.215671 
0.0322309 0.985698 0.210683 
-0.00809557 0.97277 0.239198 
-0.0454897 1.09176 0.208026 
-0.0904397 1.20772 0.156111 
-0.127057 0.991137 0.203473 
-0.14402 0.957349 0.223728 
-0.148855 0.974941 0.218502 
-0.174568 1.03537 0.206718 
-0.198417 1.00507 0.220037 
-0.234528 1.18288 0.187991 
-0.227096 1.00226 0.215229 
-0.277061 1.02891 0.206966 
-0.284357 0.902557 0.239819 
-0.413716 1.13619 0.228202 
-0.371822 0.877304 0.263513 
nan nan nan
-0.522419 1.07171 0.245631 
-0.526436 0.928045 0.224191 
-0.524573 0.950558 0.202596 
-0.52788 0.947726 0.177783 
-0.541229 0.933674 0.146349 
-0.615061 1.03396 0.100286 
-0.434814 0.809488 0.0657976 
-0.453925 0.84652 0.0465894 
-0.471841 0.772151 0.0222165 
-0.488383 0.785409 0.00590988 
-0.653288 0.944077 0.0144353 
-0.500442 0.689133 0.0129821 
-0.55405 0.701252 0.0363247 
-0.603372 0.749547 0.0994742 
-0.740609 0.865361 0.168418 
-0.683885 0.68657 0.0999341 
-0.845803 0.826402 0.185183 
-0.739843 0.595886 -0.00086751 
-0.763287 0.616477 0.0660014 
-0.913843 0.761664 0.224244 
-0.820328 0.547598 0.108241 
-0.890862 0.548802 0.184937 
-0.869391 0.420293 0.16829 
-0.844432 0.320222 0.162127 
-0.824841 0.273226 0.162259 
-0.879981 0.235016 0.185248 
-0.941534 0.234525 0.207363 
-0.862822 0.149195 0.135064 
-0.828082 0.12661 0.0904639 
-1.04352 0.164753 -0.012952 
-0.890275 0.176274 -0.0918905 
-0.834804 0.208071 -0.119166 
nan nan nan
-0.755854 0.172977 -0.223732 
-0.669976 0.188222 -0.211279 
-0.636206 0.230656 -0.279547 
-0.634412 0.279184 -0.35535 
-0.648271 0.324174 -0.381022 
-0.685855 0.363413 -0.410348 
-0.689743 0.383727 -0.428117 
-0.683177 0.372954 -0.464943 
-0.705795 0.329659 -0.510181 
-0.72965 0.325924 -0.54758 
-0.749442 0.341142 -0.568809 
-0.779942 0.365512 -0.595838 
-0.81167 0.450714 -0.47797 
-0.835063 0.349341 -0.59711 
-0.868921 0.330774 -0.553468 
-0.876026 0.306039 -0.521555 
-0.881178 0.253328 -0.521392 
-0.903673 0.180324 -0.512771 
-0.983321 0.120166 -0.520209 
-0.999518 0.112218 -0.463385 
-0.942738 0.102707 -0.363898 
-0.944442 0.0965507 -0.333692 
-1.00945 0.081831 -0.347556 
-0.928318 0.0570467 -0.325244 
-0.885511 0.0563935 -0.360428 
-0.903547 0.0601165 -0.427508 
-0.978283 0.0339873 -0.528941 
-0.923508 0.0611788 -0.514937 
-0.892735 0.0580535 -0.471162 
-0.872244 0.0233576 -0.485076 
-0.831093 0.0237529 -0.452789 
nan nan nan
-0.801958 0.0471739 -0.517078 
-0.770648 0.086039 -0.52068 
nan nan nan
-0.843429 0.06334 -0.706184 
nan nan nan
-0.849504 0.0547652 -0.724952 
-0.821362 0.0714384 -0.683529 
-0.89473 0.0478582 -0.809292 
-0.781105 0.0227027 -0.669645 
-0.785821 -0.0274309 -0.753949 
nan nan nan
-0.77326 -0.0469595 -0.879068 
-0.699254 -0.0918592 -0.739636 
-0.625573 -0.0845977 -0.594999 
-0.616407 -0.0474959 -0.621417 
-0.614994 0.0384925 -0.69958 
-0.63792 0.0688152 -0.885043 
-0.473331 0.0626387 -0.601522 
-0.438632 0.0790176 -0.575847 
-0.548216 0.184812 -0.88157 
-0.437532 0.189126 -0.646444 
-0.409385 0.234901 -0.7 
-0.338952 0.367032 -0.693464 
-0.328964 0.358992 -0.892647 
-0.215002 0.384936 -0.627583 
-0.164458 0.414752 -0.673565 
-0.118004 0.478467 -0.684545 
-0.0858283 0.480128 -0.655745 
-0.0901848 0.543785 -0.683346 
-0.0927583 0.587386 -0.790762 
-0.0454883 0.601776 -0.645908 
-0.0180488 0.613241 -0.636808 
-0.0162284 0.635701 -0.735098 
-0.0580481 0.606189 -0.970377 
0.0145184 0.653456 -0.676986 
0.00818772 0.643179 -0.723251 
0.0109933 0.611061 -0.746157 
0.0221267 0.623092 -0.741767 
0.0231966 0.584065 -0.846066 
nan nan nan
0.0800025 0.544793 -0.767182 
0.0911569 0.534635 -0.829869 
0.105089 0.505728 -0.7762 
0.0955773 0.490604 -0.96898 
0.153713 0.472152 -0.692736 
0.169035 0.452086 -0.658804 
0.136112 0.416312 -0.6864 
0.0848451 0.388951 -0.648794 
0.0863693 0.33938 -0.785975 
0.113651 0.37084 -0.974501 
0.0821696 0.309773 -0.713723 
0.0831563 0.252618 -0.721573 
0.0935198 0.196472 -0.75656 
0.141534 0.161916 -0.937874 
0.0791789 0.152635 -0.68991 
0.0696829 0.161881 -0.802508 
0.0832952 0.156897 -0.954227 
-0.00972475 0.105572 -0.783348 
-0.0356713 0.0905742 -0.838007 
-0.0350168 0.0291573 -0.824436 
-0.0379361 -0.037375 -0.825312 
-0.0296623 -0.121515 -1.06738 
-0.067108 -0.144988 -0.857757 
-0.097706 -0.112834 -0.862622 
-0.145803 -0.108331 -0.88943 
-0.197352 -0.0566495 -0.819209 
-0.276627 -0.107319 -0.833178 
-0.311331 -0.149751 -0.810444 
-0.352672 -0.183464 -0.782748 
-0.405035 -0.223581 -0.904166 
-0.377954 -0.148715 -0.79191 
-0.344603 -0.085456 -0.845364 
-0.338639 -0.128748 -1.04291 
-0.302327 -0.191411 -0.858891 
-0.27427 -0.269423 -1.01406 
-0.21439 -0.253404 -0.837812 
-0.167668 -0.313943 -0.826087 
-0.171598 -0.365204 -1.02666 
-0.118935 -0.358535 -0.753829 
-0.114806 -0.392361 -0.756974 
-0.111868 -0.412558 -0.762088 
-0.110798 -0.472805 -0.78797 
-0.110179 -0.530055 -0.790843 
-0.109049 -0.51815 -0.738291 
-0.158066 -0.610243 -1.00181 
-0.11548 -0.503527 -0.824542 
-0.154434 -0.5213 -0.82208 
-0.228551 -0.559053 -0.84892 
nan nan nan
-0.225817 -0.588849 -0.760426 
-0.238191 -0.584522 -0.729278 
-0.256951 -0.618513 -0.735095 
-0.246732 -0.672898 -0.707267 
-0.269942 -0.65587 -0.674752 
-0.305161 -0.671922 -0.663004 
-0.323856 -0.673912 -0.637741 
-0.344619 -0.666624 -0.637671 
-0.3799 -0.628922 -0.609523 
-0.377195 -0.671933 -0.560494 
-0.424053 -0.641542 -0.457149 
-0.443871 -0.727473 -0.405821 
-0.457685 -0.644433 -0.377022 
-0.444691 -0.656386 -0.362037 
-0.427418 -0.890751 -0.380782 
-0.467083 -0.743402 -0.236565 
-0.466153 -0.712141 -0.157186 
-0.475874 -0.759902 -0.147611 
-0.497666 -0.728195 -0.142599 
-0.504737 -0.697182 -0.101821 
-0.538687 -0.700373 -0.0592626 
-0.605565 -0.729701 -0.0405082 
-0.640427 -0.695287 -0.0284527 
-0.688097 -0.696644 0.0598554 
-0.709232 -0.767042 0.0773846 
-0.690273 -0.635894 0.0967571 
-0.677508 -0.680446 0.16297 
-0.657206 -0.740999 0.182134 
-0.632272 -0.685842 0.208927 
-0.600598 -0.777104 0.168382 
-0.65307 -0.975986 0.181353 
-0.524052 -0.851665 0.0841702 
-0.480854 -0.851262 0.0590825 
-0.406448 -0.873577 0.0139583 
-0.3887 -0.922536 0.00965034 
-0.363822 -0.925494 0.0164143 
-0.33394 -0.827177 -0.00493084 
-0.290029 -0.874885 -0.0499291 
-0.232872 -0.78458 -0.0693568 
-0.210688 -0.918576 -0.160485 
-0.164151 -0.769198 -0.138961 
-0.158728 -0.67303 -0.176939 
-0.167166 -0.57313 -0.222321 
-0.173003 -0.575469 -0.266683 
-0.181466 -0.545226 -0.277654 
-0.155339 -0.595221 -0.309674 
-0.141554 -0.667188 -0.347473 
-0.0845166 -0.639669 -0.367248 
nan nan nan
-0.0832144 -0.73554 -0.443478 
-0.0496664 -0.69786 -0.436004 
-0.0232833 -0.702092 -0.442323 
-0.00618431 -0.740171 -0.45056 
0.0160138 -0.791502 -0.460314 
0.00683028 -0.828288 -0.48709 
-0.0154998 -0.968875 -0.588239 
0.027378 -0.904056 -0.422924 
0.0625622 -0.913496 -0.368014 
0.0585322 -0.973894 -0.405259 
0.0797174 -0.975161 -0.386989 
0.117003 -0.926462 -0.268756 
0.129331 -0.934999 -0.334109 
0.144525 -0.913739 -0.328668 
0.155192 -0.880705 -0.324906 
0.169637 -0.887252 -0.441213 
0.182568 -0.902488 -0.493202 
0.211616 -0.884322 -0.501185 
0.231834 -0.829481 -0.43107 
0.243042 -0.859301 -0.510966 
0.257426 -0.776125 -0.438364 
0.273384 -0.725495 -0.40518 
0.312099 -0.8398 -0.644762 
0.329749 -0.667235 -0.504474 
0.348302 -0.636061 -0.543598 
0.308264 -0.618364 -0.525021 
0.287585 -0.61084 -0.552882 
nan nan nan
0.292661 -0.504474 -0.622191 
0.308871 -0.46134 -0.616327 
0.297771 -0.457992 -0.611465 
0.302376 -0.43585 -0.616652 
nan nan nan
0.231158 -0.398035 -0.510648 
0.221637 -0.419219 -0.461937 
0.267322 -0.37218 -0.369077 
0.273562 -0.364401 -0.320784 
nan nan nan
0.297646 -0.357289 -0.192067 
0.380467 -0.278673 -0.154603 
0.424648 -0.217794 -0.153732 
nan nan nan
0.440535 -0.11197 -0.0987551 
0.470002 -0.0257929 -0.0471175 
0.382327 0.00487502 -0.223665 
0.465124 -0.0148352 -0.172596 
0.529582 0.0758719 -0.144541 
0.547853 0.0786289 -0.16572 
0.549931 0.0337519 -0.187645 
0.605327 0.0376723 -0.118041 
0.626206 -0.00737579 -0.117017 
0.642648 -0.0470881 -0.172286 
0.670426 -0.032838 -0.161724 
0.698008 -0.0642213 -0.23027 
nan nan nan
0.714575 0.0281198 -0.211285 
0.848171 -0.0721448 -0.391933 
0.756059 0.122365 -0.261202 
0.782379 0.145696 -0.253393 
0.760821 0.184227 -0.277021 
0.751572 0.165286 -0.35212 
0.726753 0.206798 -0.361912 
0.765016 0.212502 -0.375564 
0.843879 0.182733 -0.421076 
nan nan nan
0.77171 0.213607 -0.400507 
0.718877 0.223683 -0.397706 
0.719864 0.150377 -0.446168 
0.717813 0.0662333 -0.490954 
0.707295 0.0433778 -0.506507 
0.628152 0.0568084 -0.512194 
0.614412 0.0899284 -0.545785 
0.587168 0.115348 -0.559449 
0.539394 0.159663 -0.527926 
0.533081 0.155482 -0.570494 
0.515793 0.17148 -0.593201 
0.504098 0.169986 -0.64697 
0.471652 0.198644 -0.645128 
0.470869 0.238432 -0.65524 
nan nan nan
0.575427 0.146649 -0.847692 
0.474136 0.207348 -0.749099 
0.470173 0.281302 -0.697222 
0.456607 0.180266 -0.768412 
0.464417 0.0787181 -0.869713 
0.444179 0.0576924 -0.881751 
0.429484 0.00235184 -0.873854 
0.35225 -0.0571993 -0.753322 
0.334887 -0.0687268 -0.635602 
0.421372 -0.0859396 -0.704822 
0.4508 -0.105247 -0.689165 
0.429791 -0.150942 -0.609451 
0.511073 -0.164364 -0.659349 
0.527936 -0.222223 -0.641894 
0.599979 -0.228504 -0.700152 
0.521304 -0.215902 -0.498513 
0.54187 -0.267118 -0.570985 
0.535926 -0.259865 -0.487209 
0.556466 -0.291468 -0.484597 
0.544704 -0.334578 -0.433888 
0.553088 -0.353707 -0.394356 
0.570905 -0.368622 -0.394024 
0.552904 -0.41343 -0.358416 
nan nan nan
0.56374 -0.555053 -0.343729 
0.568876 -0.539846 -0.281152 
0.561634 -0.561909 -0.23685 
0.595274 -0.55902 -0.214789 
0.605498 -0.533303 -0.188465 
0.645652 -0.512403 -0.151598 
0.667868 -0.459298 -0.124825 
0.681341 -0.453399 -0.103584 
0.695454 -0.428953 -0.0685661 
0.715513 -0.378184 0.0322065 
0.723255 -0.348578 0.0684119 
0.759828 -0.406387 0.166948 
0.814407 -0.44918 0.33341 
0.600543 -0.314394 0.234929 
0.607551 -0.332754 0.318171 
0.675893 -0.427002 0.511334 
0.517181 -0.302502 0.363852 
0.486952 -0.308957 0.355633 
0.552101 -0.400797 0.398038 
0.536558 -0.412524 0.397756 
0.457958 -0.383502 0.338604 
0.509886 -0.404736 0.399636 
0.670316 -0.486274 0.525488 
0.607582 -0.436275 0.469138 
0.559974 -0.375191 0.403502 
0.72261 -0.439112 0.501991 
