0.140169 -0.765432 0.394436 
0.165421 -0.760895 0.381631 
0.145774 -0.606048 0.32944 
0.23708 -0.722856 0.354413 
0.239075 -0.680364 0.400718 
0.21237 -0.570596 0.36946 
0.243906 -0.660565 0.45688 
0.240693 -0.643276 0.474051 
0.241167 -0.602873 0.475414 
0.255221 -0.617096 0.512002 
0.195767 -0.594048 0.523992 
0.152688 -0.417535 0.483241 
0.12575 -0.487864 0.560398 
0.103705 -0.472729 0.566645 
0.100454 -0.478027 0.578314 
0.100574 -0.394716 0.567425 
0.0817434 -0.405965 0.603548 
0.104327 -0.385605 0.614137 
0.0869082 -0.377536 0.63942 
0.0988098 -0.369824 0.645835 
0.0452163 -0.340741 0.653991 
0.0520996 -0.336283 0.675512 
0.0542706 -0.323051 0.704045 
0.0550111 -0.334267 0.742632 
0.0479011 -0.362476 0.779028 
0.0202272 -0.37582 0.781304 
-0.0210778 -0.294453 0.755388 
-0.0114489 -0.36774 0.778658 
nan nan nan
-0.0276652 -0.416319 0.798451 
-0.0957568 -0.353279 0.782973 
-0.122991 -0.331765 0.799369 
-0.107532 -0.394686 0.778767 
-0.144133 -0.378905 0.772369 
-0.18778 -0.376595 0.760338 
-0.151675 -0.429696 0.747706 
-0.121599 -0.494295 0.750676 
-0.186761 -0.417076 0.711937 
-0.130731 -0.528866 0.708272 
-0.172603 -0.406267 0.622233 
-0.162397 -0.455641 0.620874 
nan nan nan
-0.164673 -0.522105 0.652161 
-0.190176 -0.431779 0.60953 
-0.196103 -0.524748 0.642673 
-0.239829 -0.486325 0.635301 
nan nan nan
-0.298916 -0.477352 0.649651 
-0.365256 -0.581733 0.652816 
-0.389463 -0.407068 0.65306 
-0.435259 -0.393068 0.636552 
-0.486017 -0.362001 0.641751 
-0.524971 -0.368409 0.594943 
-0.508359 -0.385306 0.525483 
-0.589674 -0.398301 0.596849 
-0.557515 -0.391028 0.516404 
-0.549709 -0.369203 0.468342 
-0.629383 -0.415063 0.466297 
-0.579461 -0.331949 0.428877 
-0.614929 -0.3165 0.43064 
-0.644191 -0.296841 0.415851 
-0.682763 -0.3012 0.410695 
-0.686699 -0.265393 0.405854 
-0.726692 -0.26831 0.411785 
-0.740067 -0.271931 0.398784 
-0.755997 -0.297882 0.396867 
-0.80268 -0.314929 0.431702 
-0.774617 -0.280014 0.462968 
-0.706905 -0.191039 0.411087 
-0.782403 -0.230858 0.504572 
-0.76595 -0.204391 0.508055 
-0.748351 -0.164591 0.506059 
-0.759015 -0.143259 0.541575 
-0.728096 -0.0896446 0.533865 
-0.725609 -0.0788425 0.540858 
-0.703301 -0.0841547 0.558675 
-0.717315 -0.0427674 0.537711 
-0.729226 -0.021159 0.535416 
-0.739298 0.00416136 0.517242 
-0.79753 0.0519504 0.562655 
-0.773599 0.06797 0.498909 
-0.797881 0.140363 0.515987 
-0.779735 0.169141 0.467117 
-0.790186 0.210889 0.533068 
-0.788757 0.249167 0.541887 
-0.778372 0.294042 0.548931 
-0.813277 0.353533 0.589714 
-0.682118 0.335285 0.491615 
-0.65632 0.343646 0.533293 
-0.637481 0.347042 0.560342 
-0.579852 0.364147 0.553207 
nan nan nan
-0.646988 0.434831 0.610838 
-0.770581 0.502682 0.753594 
-0.595536 0.441394 0.609764 
-0.676965 0.416937 0.706745 
-0.57074 0.405373 0.645222 
-0.600613 0.368718 0.672548 
-0.638597 0.344778 0.706147 
-0.585049 0.297097 0.660752 
-0.62548 0.277183 0.673505 
-0.641777 0.266761 0.692475 
-0.680911 0.241233 0.726303 
-0.708632 0.17573 0.700446 
-0.79554 0.199614 0.85375 
-0.688404 0.152741 0.72993 
-0.660805 0.151365 0.703569 
-0.660987 0.141939 0.764961 
-0.617785 0.137185 0.695693 
-0.60708 0.104263 0.782527 
-0.543813 0.0892369 0.692352 
-0.491754 0.0838427 0.641249 
-0.470955 0.0502399 0.595887 
-0.43348 0.0589461 0.647278 
-0.382541 0.0592369 0.800371 
-0.357616 0.0393459 0.764473 
-0.31654 0.0206576 0.555829 
-0.317465 0.00861664 0.682745 
-0.331876 -0.00922439 0.762187 
nan nan nan
-0.284391 -0.0714698 0.692357 
-0.276996 -0.0973179 0.686737 
-0.22172 -0.117006 0.605783 
-0.195748 -0.0996778 0.655879 
nan nan nan
-0.174149 -0.0719506 0.689053 
-0.105774 -0.0723 0.563718 
-0.0696463 -0.0360558 0.585444 
nan nan nan
-0.0638559 0.0153527 0.720065 
-0.0125275 0.0340828 0.687679 
0.0017088 0.0750983 0.845595 
0.00395402 0.099815 0.63602 
-0.010614 0.127199 0.818516 
-0.0318041 0.152251 0.62692 
0.0194211 0.181418 0.664196 
nan nan nan
0.104562 0.315589 0.662015 
nan nan nan
0.255257 0.340345 0.68978 
0.27349 0.338876 0.681876 
0.28987 0.37778 0.671976 
0.379689 0.318096 0.714781 
0.34596 0.39294 0.666817 
0.367609 0.403581 0.664668 
0.307677 0.462385 0.6399 
0.360153 0.500911 0.632432 
0.501237 0.444334 0.659673 
0.402417 0.550461 0.563827 
0.403204 0.5394 0.52087 
0.392384 0.553112 0.465977 
0.371903 0.555826 0.398074 
0.434848 0.555078 0.38516 
0.462656 0.573766 0.37556 
0.495207 0.565036 0.358691 
0.468816 0.49371 0.29757 
0.529499 0.542434 0.334525 
0.497633 0.493821 0.283939 
0.524276 0.514326 0.309779 
0.561571 0.520172 0.325935 
0.633286 0.526927 0.342566 
0.695869 0.573159 0.379438 
0.726065 0.5589 0.370675 
0.725574 0.491687 0.323717 
0.741199 0.467601 0.316128 
0.738459 0.411389 0.30462 
0.760944 0.373623 0.29189 
0.803312 0.374324 0.270668 
0.772242 0.291126 0.345879 
0.789553 0.324314 0.278752 
0.82099 0.303445 0.265192 
0.858189 0.306475 0.225972 
0.793971 0.235653 0.245645 
0.779351 0.225757 0.234575 
0.77376 0.195997 0.193002 
0.746246 0.11581 0.178869 
0.726062 0.12256 0.150059 
0.714839 0.0733971 0.0995144 
0.684114 0.0131097 0.0130454 
0.625575 0.0369194 0.142953 
0.561535 -0.000756306 0.268847 
0.51159 0.0158467 0.229198 
0.488372 0.0481395 0.194993 
0.454391 0.0657191 0.135734 
0.38437 0.116635 0.175744 
0.35366 0.138571 0.0401706 
0.320448 0.174804 -0.0030932 
0.258373 0.209914 -0.0764614 
0.222496 0.242113 -0.207499 
0.138377 0.282455 0.0128956 
0.104531 0.290934 0.0567138 
0.0970292 0.251228 -0.0193012 
0.117629 0.256502 -0.184107 
0.0830704 0.243092 -0.18084 
0.00734654 0.207164 -0.0756902 
-0.0401747 0.201729 -0.0196539 
-0.0994648 0.201985 0.00816111 
-0.103302 0.236661 -0.0930025 
-0.135217 0.245099 -0.0853497 
-0.134684 0.279888 -0.0837041 
-0.148792 0.31404 -0.0637174 
-0.183843 0.356883 -0.057495 
-0.219755 0.38965 -0.0695473 
-0.268435 0.420352 -0.0406274 
-0.358708 0.395457 -0.0387171 
-0.45525 0.368731 -0.0194886 
-0.502853 0.375615 0.0087726 
nan nan nan
-0.615298 0.394656 0.0278606 
-0.636868 0.385105 0.0958488 
-0.691504 0.472059 0.0551119 
-0.665763 0.455211 0.151979 
-0.681908 0.520355 0.169267 
-0.624031 0.582229 0.198049 
-0.591584 0.598823 0.210899 
-0.561193 0.618125 0.262434 
-0.548075 0.651311 0.325924 
-0.467965 0.664954 0.344244 
-0.453656 0.714683 0.314929 
-0.439062 0.735728 0.317081 
-0.404211 0.763036 0.357152 
-0.288779 0.664392 0.486678 
-0.374479 0.736376 0.423842 
-0.392745 0.760849 0.45315 
-0.331569 0.771452 0.476445 
-0.333443 0.824882 0.441621 
-0.304303 0.786922 0.458653 
-0.294556 0.802732 0.436818 
-0.287012 0.810118 0.42891 
-0.309559 0.858915 0.379876 
-0.254437 0.8662 0.390092 
-0.184141 0.867789 0.435506 
-0.216019 0.880848 0.375685 
-0.241307 0.909105 0.349379 
-0.154523 0.884429 0.403675 
-0.193761 0.869596 0.344944 
-0.228028 0.848966 0.294226 
-0.153529 0.827707 0.287978 
-0.0593869 0.845556 0.366533 
-0.114758 0.788945 0.25739 
-0.0254752 0.826289 0.331481 
-0.0954392 0.768118 0.227866 
-0.082441 0.743787 0.185698 
-0.0840842 0.715164 0.151008 
-0.013983 0.763547 0.178706 
0.0569688 0.806484 0.233327 
0.0537048 0.765168 0.104671 
0.148818 0.791888 0.0960332 
0.206371 0.787582 0.0550517 
0.278504 0.797605 0.0480595 
0.352703 0.778557 0.0404294 
0.40351 0.811537 -0.00472052 
0.428293 0.721918 0.0143618 
0.53792 0.781815 -0.0730694 
0.498897 0.625291 -0.0371994 
0.573809 0.632689 -0.0658039 
0.539963 0.545828 -0.0494316 
0.607002 0.535185 -0.0591085 
0.624296 0.506818 -0.0636376 
0.660843 0.493387 -0.0645328 
0.619577 0.427505 -0.0595733 
0.72991 0.484439 -0.0802746 
0.702317 0.452627 -0.0660558 
0.754317 0.489527 -0.086375 
0.728915 0.479642 -0.068964 
0.683537 0.453036 -0.0768011 
0.789318 0.520489 -0.111643 
0.67173 0.513853 -0.0422147 
0.685054 0.52752 -0.0304431 
0.657367 0.539426 0.00518864 
0.68538 0.571903 0.0230061 
0.755009 0.612512 0.00790499 
0.721204 0.573683 0.0387698 
0.75552 0.612446 0.0431532 
0.788603 0.669128 0.0293131 
0.730351 0.648604 0.0722778 
0.719218 0.669734 0.078033 
0.699594 0.69841 0.0949342 
0.681064 0.705251 0.107395 
0.697096 0.781484 0.11805 
0.709895 0.847134 0.113441 
0.642862 0.774064 0.156887 
0.611983 0.779182 0.168421 
0.611503 0.77876 0.15999 
0.589517 0.799869 0.156242 
0.548621 0.788949 0.157088 
0.595044 0.902389 0.128579 
0.49964 0.798976 0.152144 
0.490276 0.842822 0.146166 
0.429484 0.798581 0.16636 
0.468455 0.925281 0.133791 
0.366285 0.84863 0.142164 
nan nan nan
0.440151 1.00137 0.171725 
0.326255 0.989444 0.105186 
0.342464 1.01137 0.0938976 
0.329823 1.05651 0.077218 
0.318991 1.08116 0.0638793 
0.345188 1.15633 0.0935104 
0.300916 1.0612 -0.0564151 
0.328694 1.1034 -0.0184952 
0.296208 1.08296 -0.0584742 
0.275764 1.11433 -0.0182683 
0.264419 1.21715 0.091144 
0.194131 1.0556 -0.117797 
0.157056 1.08351 -0.0503369 
0.159482 1.04425 0.00821626 
0.135119 1.12421 0.143994 
0.0829516 1.04155 0.046393 
0.0478551 1.12244 0.14396 
-0.0231624 1.01581 -0.0403727 
-0.0506599 1.024 0.0356376 
-0.0428247 1.11485 0.165914 
-0.110613 1.00328 0.0807498 
-0.14809 1.00636 0.11219 
-0.196056 0.958749 0.0972182 
-0.244945 0.900464 0.0773385 
-0.281444 0.854825 0.0673567 
-0.293282 0.861327 0.0465045 
-0.31101 0.877007 0.0511313 
-0.335973 0.840651 0.0216076 
-0.36341 0.792098 -0.0118221 
-0.377231 0.921978 -0.0885154 
-0.324969 0.835285 -0.134776 
-0.312933 0.804405 -0.211299 
nan nan nan
-0.31917 0.816704 -0.330959 
-0.271445 0.743569 -0.301179 
-0.222999 0.758829 -0.377518 
-0.194573 0.764282 -0.451394 
-0.175418 0.755847 -0.475528 
-0.157822 0.749062 -0.513569 
-0.122332 0.753794 -0.538264 
-0.103246 0.710835 -0.557085 
-0.118678 0.672171 -0.596389 
-0.117559 0.675873 -0.621358 
-0.107604 0.68315 -0.646751 
-0.117387 0.711368 -0.668343 
-0.0567357 0.790467 -0.691224 
-0.136684 0.723595 -0.690797 
-0.157343 0.715015 -0.702451 
-0.185098 0.711461 -0.710317 
-0.239647 0.692976 -0.705013 
-0.284847 0.695169 -0.699469 
-0.324072 0.736338 -0.702756 
-0.356719 0.742391 -0.692656 
-0.364897 0.75768 -0.620803 
-0.373404 0.778367 -0.619957 
-0.446023 0.771664 -0.690861 
-0.441879 0.747951 -0.638988 
-0.41551 0.724472 -0.633952 
-0.422439 0.697593 -0.675775 
-0.431965 0.693372 -0.72743 
-0.40241 0.653426 -0.710099 
-0.38024 0.626325 -0.69108 
-0.375416 0.594431 -0.698262 
-0.380282 0.595953 -0.671175 
nan nan nan
-0.36867 0.582978 -0.676823 
-0.316601 0.575489 -0.648178 
nan nan nan
-0.358528 0.548787 -0.722634 
nan nan nan
-0.360154 0.521208 -0.732639 
-0.337858 0.505019 -0.702052 
-0.414497 0.519361 -0.830344 
-0.35352 0.442933 -0.666314 
-0.387829 0.395495 -0.733807 
nan nan nan
-0.375674 0.42792 -0.891971 
-0.347775 0.382387 -0.841286 
-0.307796 0.308782 -0.72246 
-0.286321 0.315488 -0.751889 
-0.260001 0.380794 -0.903243 
-0.220589 0.393744 -1.01415 
-0.159385 0.303343 -0.812366 
-0.109669 0.288013 -0.766623 
-0.134245 0.365251 -1.0362 
-0.0376171 0.331587 -0.890913 
0.0163072 0.319912 -0.926107 
0.113208 0.346648 -0.907979 
0.124921 0.300404 -1.05147 
0.221184 0.274114 -0.835948 
0.305825 0.243206 -0.882864 
0.379062 0.246211 -0.872765 
0.414111 0.230087 -0.793243 
0.466442 0.24608 -0.773721 
0.513601 0.222933 -0.878343 
0.514858 0.200089 -0.757323 
0.519471 0.162816 -0.727421 
0.561123 0.175968 -0.788441 
0.586363 0.182171 -0.897753 
0.571175 0.146393 -0.704151 
0.556117 0.11896 -0.769134 
0.543097 0.0997306 -0.77096 
0.549315 0.0984726 -0.784392 
0.547835 0.0808113 -0.810574 
nan nan nan
0.516247 0.0244587 -0.736252 
0.526876 0.0374339 -0.810633 
0.491681 0.00313612 -0.765583 
0.498491 0.0119251 -0.886011 
0.470479 -0.0234099 -0.711078 
0.434 -0.043019 -0.701422 
0.392362 -0.04156 -0.745651 
0.366937 -0.0732252 -0.694989 
0.332439 -0.0832553 -0.784937 
0.336484 -0.0520684 -0.910868 
0.2906 -0.0819124 -0.722225 
0.242417 -0.0754419 -0.716485 
0.204995 -0.102104 -0.753656 
0.193771 -0.168676 -0.885025 
0.156316 -0.11832 -0.689855 
0.1441 -0.131757 -0.777311 
0.114875 -0.160167 -0.919401 
0.0589159 -0.143403 -0.745737 
-0.00715256 -0.138223 -0.817904 
-0.0238027 -0.189145 -0.754194 
-0.057635 -0.220147 -0.722341 
-0.100299 -0.236035 -0.902989 
-0.153409 -0.232215 -0.748412 
-0.157384 -0.199709 -0.795818 
-0.168402 -0.176081 -0.837705 
-0.156187 -0.0926014 -0.781679 
-0.22368 -0.0769333 -0.786742 
-0.269447 -0.0759917 -0.756244 
-0.301635 -0.0399242 -0.751134 
-0.321086 -0.0044856 -0.886334 
-0.32901 0.0412244 -0.809462 
-0.286014 0.0300305 -0.823915 
-0.286765 -0.0121942 -0.977499 
-0.302541 -0.0579973 -0.762347 
-0.369753 -0.13142 -0.951717 
-0.346214 -0.15556 -0.748935 
-0.386358 -0.198933 -0.726854 
-0.434367 -0.251609 -0.910833 
-0.393988 -0.258156 -0.673205 
-0.414143 -0.281741 -0.690683 
-0.436656 -0.317261 -0.703281 
-0.463096 -0.352046 -0.713988 
-0.484277 -0.375865 -0.70367 
-0.466328 -0.405175 -0.653983 
-0.550322 -0.371612 -0.770477 
-0.514089 -0.381436 -0.724308 
-0.550721 -0.366904 -0.731511 
-0.580966 -0.348029 -0.746068 
nan nan nan
-0.584688 -0.37266 -0.651019 
-0.585203 -0.38632 -0.612728 
-0.618 -0.386695 -0.603049 
-0.638782 -0.406248 -0.585015 
-0.673799 -0.446757 -0.595545 
-0.674252 -0.373425 -0.566259 
-0.694457 -0.357218 -0.545467 
-0.700076 -0.336961 -0.537811 
-0.70989 -0.308955 -0.524421 
-0.752201 -0.286081 -0.486884 
-0.737902 -0.261309 -0.410065 
-0.829316 -0.271941 -0.397064 
-0.750247 -0.214567 -0.358764 
-0.758982 -0.214105 -0.330133 
-0.928897 -0.241483 -0.287105 
-0.865953 -0.182131 -0.206902 
-0.809009 -0.143612 -0.120164 
-0.835524 -0.137574 -0.105161 
-0.818031 -0.120229 -0.105751 
-0.777767 -0.0753553 -0.0597962 
-0.805957 -0.0310408 -0.0136593 
-0.889318 -0.0243002 -0.00977102 
-0.877407 0.0289155 0.0185037 
-0.964309 0.0449562 0.0773654 
-1.03256 0.00240873 0.0796452 
-0.961071 0.0511003 0.115103 
-0.996197 0.0197531 0.133113 
-0.992973 -0.00919628 0.146643 
-0.910921 0.0117825 0.180814 
-0.92268 -0.0601 0.168696 
-1.0568 -0.0984642 0.123123 
-0.887394 -0.158015 0.112545 
-0.861807 -0.208956 0.11221 
-0.826069 -0.243117 0.0864527 
-0.83876 -0.2779 0.0689107 
-0.818393 -0.290458 0.0589959 
-0.738468 -0.251611 0.0773626 
-0.783418 -0.301296 0.0453988 
-0.643838 -0.296144 0.0457503 
-0.76043 -0.441309 -0.0330076 
-0.612455 -0.396088 -0.0451543 
-0.621599 -0.394648 -0.0940692 
-0.543684 -0.360594 -0.132989 
-0.596567 -0.400764 -0.141766 
-0.570235 -0.367446 -0.182488 
-0.605183 -0.429736 -0.203269 
-0.645332 -0.470435 -0.197458 
-0.596634 -0.486243 -0.235735 
nan nan nan
-0.680048 -0.549182 -0.287039 
-0.597605 -0.539663 -0.347737 
-0.580246 -0.551506 -0.365945 
-0.592382 -0.577261 -0.34076 
-0.592168 -0.596971 -0.33001 
-0.581433 -0.620412 -0.334231 
-0.646486 -0.667636 -0.278863 
-0.605159 -0.65523 -0.390869 
-0.587065 -0.680144 -0.447141 
-0.591506 -0.701153 -0.420194 
-0.582463 -0.705707 -0.439105 
-0.590355 -0.738095 -0.518688 
-0.546296 -0.714028 -0.472892 
-0.537684 -0.72373 -0.480104 
-0.506805 -0.714537 -0.512732 
-0.482894 -0.717732 -0.468655 
-0.479556 -0.719253 -0.436879 
-0.448131 -0.721659 -0.426823 
-0.431262 -0.733142 -0.447274 
-0.424386 -0.723322 -0.353169 
-0.418787 -0.724253 -0.378217 
-0.371487 -0.754986 -0.416455 
-0.366971 -0.705552 -0.28317 
-0.287338 -0.698021 -0.406905 
-0.26492 -0.681081 -0.38895 
-0.25408 -0.700358 -0.4311 
-0.25176 -0.689341 -0.455735 
nan nan nan
-0.178647 -0.678101 -0.551696 
-0.149451 -0.637713 -0.547255 
-0.143185 -0.628769 -0.527853 
-0.137752 -0.59659 -0.486872 
nan nan nan
-0.133245 -0.546379 -0.460277 
-0.194885 -0.532789 -0.383637 
-0.155482 -0.484544 -0.315951 
-0.137669 -0.476169 -0.255851 
nan nan nan
-0.0995182 -0.473125 -0.163814 
0.0115118 -0.453134 -0.13941 
0.0666503 -0.398624 -0.107413 
nan nan nan
0.150101 -0.38812 -0.154229 
0.216347 -0.366421 -0.182461 
0.263223 -0.322857 -0.0265051 
0.289952 -0.346792 -0.109573 
0.36647 -0.352621 -0.19825 
0.386862 -0.385572 -0.191958 
0.404354 -0.38918 -0.108419 
0.436889 -0.423525 -0.189795 
0.400861 -0.477767 -0.144925 
0.368864 -0.507724 -0.12277 
0.376896 -0.524913 -0.149245 
0.422543 -0.523132 -0.0509698 
nan nan nan
0.375186 -0.612379 -0.228972 
0.512406 -0.576355 -0.0662507 
0.454291 -0.646745 -0.229109 
0.445507 -0.682055 -0.220597 
0.432665 -0.737864 -0.257524 
0.423389 -0.715956 -0.28771 
0.392144 -0.746333 -0.347458 
0.433549 -0.745735 -0.323506 
0.456617 -0.726129 -0.311488 
nan nan nan
0.418361 -0.737086 -0.355293 
0.3677 -0.751289 -0.411468 
0.35544 -0.679581 -0.416084 
0.386867 -0.638165 -0.408716 
0.398026 -0.611285 -0.427957 
0.372909 -0.62474 -0.491192 
0.384821 -0.607683 -0.518899 
0.396769 -0.591645 -0.525539 
0.423552 -0.59613 -0.556306 
0.410204 -0.570617 -0.56555 
0.393817 -0.56636 -0.611067 
0.370449 -0.540771 -0.63467 
0.338125 -0.563489 -0.671198 
0.365199 -0.568506 -0.703039 
nan nan nan
0.363765 -0.406558 -0.636122 
0.324543 -0.460307 -0.681345 
0.305629 -0.513444 -0.750044 
0.287429 -0.449312 -0.695792 
0.239331 -0.422214 -0.637036 
0.204966 -0.427841 -0.621022 
0.166883 -0.447308 -0.616605 
0.139459 -0.520504 -0.644675 
0.12614 -0.622726 -0.698073 
0.140453 -0.575344 -0.619699 
0.138165 -0.599686 -0.596475 
0.114095 -0.664703 -0.596597 
0.120571 -0.628573 -0.527126 
0.11902 -0.635701 -0.517037 
0.118641 -0.608066 -0.480087 
0.105167 -0.732739 -0.529464 
0.0903167 -0.67232 -0.476073 
0.0751187 -0.70409 -0.484089 
0.0737985 -0.682354 -0.446537 
0.049612 -0.729497 -0.435703 
0.0291045 -0.780941 -0.429888 
0.0516995 -0.736303 -0.385552 
0.00876887 -0.779333 -0.376068 
nan nan nan
-0.0397876 -0.753935 -0.282221 
-0.0115992 -0.77147 -0.244493 
-0.0441801 -0.811906 -0.235423 
-0.00838711 -0.788238 -0.206187 
-0.0172083 -0.819856 -0.188311 
0.0274399 -0.805087 -0.150639 
0.0553232 -0.797821 -0.115394 
0.0749986 -0.79378 -0.0856662 
0.0994106 -0.798636 -0.0693868 
0.128812 -0.835786 0.0381888 
0.12119 -0.823713 0.12709 
0.080805 -0.748326 0.146022 
0.0509159 -0.689922 0.182822 
0.125851 -0.822105 0.291668 
0.0968615 -0.764645 0.337503 
0.00903504 -0.63269 0.349037 
0.0851711 -0.749171 0.43048 
0.0878047 -0.760617 0.47013 
0.0437315 -0.712082 0.443111 
0.041512 -0.71527 0.450907 
0.0518578 -0.791938 0.490056 
0.043602 -0.739965 0.458817 
-0.0041045 -0.647525 0.410575 
0.0370615 -0.691838 0.417366 
0.0914908 -0.794307 0.437263 
0.0586823 -0.635267 0.386589 
