-0.774452 -0.358821 -0.168841 
-0.774821 -0.378403 -0.154253 
-0.699497 -0.419374 -0.091907 
-0.77243 -0.41817 -0.131415 
-0.752689 -0.443689 -0.135076 
-0.692143 -0.48118 -0.101529 
-0.736533 -0.48779 -0.144274 
-0.722119 -0.500395 -0.143824 
-0.705755 -0.516866 -0.138382 
-0.711187 -0.528871 -0.148796 
-0.67951 -0.531802 -0.176395 
-0.57602 -0.579737 -0.154759 
-0.589364 -0.562808 -0.223715 
-0.575087 -0.575291 -0.230986 
-0.566397 -0.575252 -0.2399 
-0.556765 -0.631939 -0.255496 
-0.532099 -0.624723 -0.264462 
-0.513149 -0.637108 -0.278659 
-0.486832 -0.608331 -0.277308 
-0.487971 -0.627748 -0.288959 
-0.466411 -0.595474 -0.284104 
-0.448623 -0.607415 -0.306896 
-0.427604 -0.614175 -0.313836 
-0.441005 -0.632271 -0.33795 
-0.445996 -0.647876 -0.362157 
-0.456354 -0.654815 -0.395087 
-0.453732 -0.614896 -0.402139 
-0.474886 -0.636538 -0.425935 
nan nan nan
-0.502966 -0.628172 -0.447463 
-0.488429 -0.580748 -0.432994 
-0.484468 -0.555345 -0.426028 
-0.505681 -0.570735 -0.440346 
-0.50756 -0.55359 -0.438433 
-0.514891 -0.515932 -0.435809 
-0.537328 -0.544521 -0.448433 
-0.55853 -0.56567 -0.465738 
-0.550824 -0.490819 -0.436811 
-0.597151 -0.537385 -0.45504 
-0.575391 -0.458721 -0.412896 
-0.569709 -0.473975 -0.444123 
nan nan nan
-0.542816 -0.472194 -0.474569 
-0.508796 -0.428107 -0.469769 
-0.510154 -0.444536 -0.526268 
-0.495257 -0.416507 -0.530096 
nan nan nan
-0.461571 -0.386733 -0.548004 
-0.465138 -0.402217 -0.625328 
-0.417799 -0.33155 -0.585362 
-0.397577 -0.302397 -0.604903 
-0.379756 -0.276256 -0.621502 
-0.397355 -0.231863 -0.616805 
-0.400674 -0.214923 -0.601295 
-0.398736 -0.197622 -0.628839 
-0.398388 -0.175009 -0.60607 
-0.390664 -0.155008 -0.596165 
-0.40334 -0.106803 -0.629318 
-0.356263 -0.109946 -0.584823 
-0.346783 -0.0972346 -0.59609 
-0.326579 -0.0835962 -0.594565 
-0.313554 -0.0674421 -0.604413 
-0.298406 -0.0458386 -0.628369 
-0.297971 -0.0347618 -0.655854 
-0.296623 -0.0263222 -0.660856 
-0.294912 -0.0217725 -0.664318 
-0.307771 -0.0113512 -0.704049 
-0.285077 -0.0283015 -0.704203 
-0.229439 -0.0526374 -0.655447 
-0.253328 -0.0425982 -0.724311 
-0.23207 -0.0528143 -0.722852 
-0.220969 -0.056872 -0.721137 
-0.210164 -0.0613666 -0.740181 
-0.182069 -0.0725813 -0.728768 
-0.172209 -0.0741679 -0.735313 
-0.171321 -0.0808818 -0.747469 
-0.148512 -0.0844309 -0.712046 
-0.133949 -0.0811568 -0.713114 
-0.118151 -0.0684573 -0.732801 
-0.073428 -0.0718838 -0.659725 
-0.0451991 -0.0582502 -0.703022 
-0.00565807 -0.0563299 -0.703976 
0.0107057 -0.0423108 -0.725052 
0.0466222 -0.0516444 -0.725061 
0.0887803 -0.0482398 -0.730389 
0.125193 -0.0531467 -0.734542 
0.202788 -0.0855694 -0.791287 
0.191157 -0.0615124 -0.704338 
0.209959 -0.110015 -0.696538 
0.211155 -0.138292 -0.693514 
0.236194 -0.159039 -0.674518 
nan nan nan
0.299187 -0.160877 -0.734918 
0.400354 -0.204157 -0.82733 
0.369841 -0.186476 -0.677986 
0.344275 -0.200315 -0.745995 
0.307009 -0.19605 -0.704774 
0.278822 -0.204526 -0.726446 
0.266929 -0.213988 -0.7435 
0.230898 -0.198848 -0.695445 
0.225758 -0.212389 -0.718152 
0.219619 -0.241414 -0.733238 
0.212336 -0.275701 -0.773613 
0.136697 -0.26891 -0.76575 
0.178847 -0.339258 -0.872392 
0.108911 -0.315743 -0.782427 
0.0680507 -0.313127 -0.757081 
0.0843561 -0.348338 -0.792185 
0.0556565 -0.329134 -0.746633 
0.0381328 -0.36954 -0.762397 
0.004744 -0.346418 -0.696811 
-0.0142415 -0.341853 -0.65052 
-0.0405329 -0.319135 -0.605338 
-0.036748 -0.371038 -0.610647 
-0.0348421 -0.47144 -0.666879 
-0.0494839 -0.485252 -0.632549 
-0.0725222 -0.416616 -0.533231 
-0.0648772 -0.46584 -0.59754 
-0.0571967 -0.506357 -0.650673 
nan nan nan
-0.119044 -0.508888 -0.601833 
-0.141808 -0.531667 -0.591111 
-0.151622 -0.504463 -0.52779 
-0.15107 -0.55086 -0.535084 
nan nan nan
-0.144122 -0.591316 -0.518059 
-0.138605 -0.545688 -0.442718 
-0.0989046 -0.58631 -0.436239 
nan nan nan
-0.0313729 -0.64568 -0.461254 
-0.0199438 -0.656781 -0.427113 
0.0726322 -0.712819 -0.489091 
0.0267034 -0.638759 -0.37394 
0.0905109 -0.707215 -0.488148 
0.0743342 -0.607837 -0.369117 
0.105724 -0.662509 -0.367841 
nan nan nan
0.157358 -0.714508 -0.279118 
nan nan nan
0.256145 -0.736143 -0.326211 
0.270392 -0.744379 -0.321421 
0.28113 -0.758154 -0.272823 
0.375141 -0.719218 -0.336603 
0.341081 -0.745146 -0.263771 
0.365599 -0.743945 -0.241715 
0.322387 -0.803327 -0.192578 
0.372363 -0.795691 -0.168073 
0.430607 -0.716044 -0.187872 
0.40772 -0.817218 -0.125188 
0.435798 -0.821185 -0.100508 
0.468384 -0.817817 -0.0710046 
0.51498 -0.83315 -0.0415693 
0.505071 -0.787195 -0.0210764 
0.500119 -0.747172 -0.000503838 
0.506917 -0.737549 0.0274596 
0.544568 -0.786443 0.0501303 
0.542669 -0.749778 0.0686611 
0.577719 -0.811597 0.0727506 
0.574941 -0.790107 0.0833253 
0.552617 -0.78669 0.104443 
0.542364 -0.781832 0.139945 
0.500644 -0.731473 0.170173 
0.489836 -0.743212 0.197432 
0.503532 -0.809008 0.226396 
0.483395 -0.812083 0.25053 
0.469252 -0.840615 0.29067 
0.451531 -0.844877 0.324411 
0.421563 -0.820189 0.356209 
0.441693 -0.872712 0.356515 
0.421398 -0.845984 0.366487 
0.399616 -0.838731 0.377563 
0.361585 -0.803921 0.403231 
0.359666 -0.84938 0.395409 
0.337911 -0.848829 0.405171 
0.289374 -0.824513 0.435177 
0.220317 -0.844652 0.461667 
0.227536 -0.797349 0.460079 
0.162212 -0.732039 0.491832 
0.0912975 -0.644126 0.531581 
0.0942552 -0.724473 0.47837 
0.0760957 -0.738809 0.399965 
0.0536844 -0.661482 0.377916 
0.0679205 -0.637697 0.360186 
0.0585707 -0.595842 0.341876 
0.0855419 -0.585122 0.288246 
0.0666674 -0.462722 0.285439 
0.101689 -0.40783 0.276298 
0.124169 -0.305388 0.276892 
0.149976 -0.180293 0.31922 
0.208268 -0.233895 0.182789 
0.229916 -0.229658 0.142835 
0.211555 -0.176835 0.148159 
0.189343 -0.12953 0.212321 
0.195719 -0.107354 0.173104 
0.218165 -0.116962 0.0926543 
0.22477 -0.108783 0.0378221 
0.236309 -0.0901284 -0.00573081 
0.240126 -0.0595268 0.0235212 
0.264462 -0.0491633 -0.000693494 
0.290076 -0.0385634 -0.0192581 
0.323084 -0.0276833 -0.0405192 
0.358234 -0.0100971 -0.0691928 
0.386544 -0.00274033 -0.0878111 
0.420932 0.0249528 -0.115086 
0.397696 0.0748415 -0.180606 
0.391953 0.119711 -0.22874 
0.400165 0.160966 -0.298689 
nan nan nan
0.411439 0.228764 -0.395477 
0.427206 0.195324 -0.411028 
0.480666 0.221488 -0.450296 
0.492475 0.161158 -0.450507 
0.524516 0.158494 -0.46442 
0.592834 0.145971 -0.439441 
0.619043 0.124455 -0.414156 
0.641363 0.0811113 -0.425108 
0.672007 0.0695981 -0.444029 
0.682641 0.0285706 -0.419933 
0.7165 0.0269951 -0.397165 
0.728398 0.00899321 -0.378125 
0.718855 -0.0299371 -0.378851 
0.651754 -0.150629 -0.3896 
0.722697 -0.0847072 -0.388311 
0.746004 -0.0866309 -0.409605 
0.747805 -0.136292 -0.384292 
0.775512 -0.127415 -0.36818 
0.765584 -0.137512 -0.353577 
0.776259 -0.15108 -0.331123 
0.776642 -0.141712 -0.328697 
0.804009 -0.114551 -0.32034 
0.806577 -0.129738 -0.299771 
0.798867 -0.1723 -0.282069 
0.813095 -0.143507 -0.277131 
0.834274 -0.128772 -0.271834 
0.810976 -0.179404 -0.261214 
0.816697 -0.148069 -0.241557 
0.8131 -0.139803 -0.22033 
0.807579 -0.176348 -0.204123 
0.847154 -0.254839 -0.188805 
0.787638 -0.214513 -0.156764 
0.842559 -0.278737 -0.145415 
0.775458 -0.239026 -0.114883 
0.765093 -0.242893 -0.0814525 
0.748022 -0.240942 -0.0647712 
0.765906 -0.271102 -0.0441718 
0.819475 -0.328701 -0.0297178 
0.743263 -0.290792 0.0339475 
0.754737 -0.321301 0.0898572 
0.733124 -0.334713 0.135319 
0.730983 -0.361288 0.183371 
0.719393 -0.380257 0.203403 
0.731627 -0.386484 0.255437 
0.691778 -0.404538 0.269982 
0.725577 -0.402162 0.356975 
0.632492 -0.42071 0.371374 
0.652419 -0.424463 0.431195 
0.592342 -0.441655 0.43099 
0.601937 -0.435622 0.474194 
0.593204 -0.443235 0.494138 
0.595517 -0.452024 0.524136 
0.550611 -0.453642 0.512287 
0.621739 -0.452662 0.551842 
0.593071 -0.458817 0.542069 
0.631569 -0.461633 0.56565 
0.601791 -0.47971 0.550505 
0.567524 -0.48569 0.543048 
0.643825 -0.48909 0.585439 
0.59854 -0.509152 0.532877 
0.613544 -0.528072 0.536 
0.612586 -0.527371 0.498368 
0.643196 -0.554588 0.496804 
0.676907 -0.564131 0.521426 
0.650454 -0.570824 0.485083 
0.683819 -0.588541 0.502371 
0.715722 -0.587841 0.522568 
0.691034 -0.595419 0.469239 
0.712916 -0.589569 0.459664 
0.720567 -0.587315 0.432285 
0.729746 -0.585365 0.409857 
0.771901 -0.580558 0.414269 
0.80703 -0.579562 0.423178 
0.765107 -0.580925 0.377267 
0.761986 -0.583373 0.353616 
0.763888 -0.582101 0.340732 
0.785838 -0.57647 0.32743 
0.788572 -0.569503 0.291313 
0.854483 -0.573299 0.320558 
0.802756 -0.556163 0.261035 
0.825115 -0.546147 0.253241 
0.799065 -0.549272 0.217355 
0.860912 -0.524484 0.243925 
0.817822 -0.50281 0.201955 
nan nan nan
0.938254 -0.500553 0.240168 
0.920364 -0.432027 0.244156 
0.926929 -0.425766 0.266149 
0.958622 -0.394049 0.29535 
0.960551 -0.376193 0.30961 
1.0406 -0.367819 0.323131 
0.954846 -0.320721 0.346819 
0.971928 -0.32789 0.352123 
0.957425 -0.289893 0.359608 
0.993796 -0.284205 0.316783 
1.09674 -0.305037 0.268123 
0.952429 -0.210349 0.300753 
0.986125 -0.220341 0.241363 
0.949164 -0.226495 0.208282 
1.06468 -0.281217 0.135011 
0.976 -0.206652 0.146077 
1.05056 -0.213109 0.0913077 
0.933709 -0.134177 0.124921 
0.950671 -0.134652 0.0627473 
1.03444 -0.18063 0.0277873 
0.934999 -0.110099 0.0161764 
0.929812 -0.0795466 -0.00144649 
0.8882 -0.0305462 -0.0293983 
0.86601 -0.00258514 -0.0487252 
0.843459 0.0312367 -0.069711 
0.829565 0.0358532 -0.0412947 
0.82116 0.041768 -0.0430336 
0.806617 0.0764323 -0.0389637 
0.804217 0.126021 -0.0507712 
0.766402 0.0859497 0.0427681 
0.769563 0.151013 0.058679 
0.767207 0.21153 0.0985102 
nan nan nan
0.710216 0.23319 0.198847 
0.697263 0.273051 0.187656 
0.658296 0.366461 0.250551 
0.649229 0.388344 0.295153 
0.618579 0.385659 0.334768 
0.602958 0.384814 0.387351 
0.588826 0.379191 0.41578 
0.589582 0.353814 0.45349 
0.570663 0.391758 0.454254 
0.530657 0.401696 0.46632 
0.474585 0.398527 0.467655 
0.50547 0.384604 0.499999 
0.449752 0.334544 0.474254 
0.499754 0.383197 0.505037 
0.500513 0.38798 0.512979 
0.495239 0.407468 0.522769 
0.503176 0.451675 0.540125 
0.516724 0.466913 0.547876 
0.556563 0.491228 0.569651 
0.578972 0.524314 0.583589 
0.565294 0.523402 0.558207 
0.579949 0.558949 0.560265 
0.597712 0.611931 0.590057 
0.580096 0.614507 0.576299 
0.557661 0.621384 0.563253 
0.559019 0.643278 0.577558 
0.563115 0.67873 0.601329 
0.536898 0.659898 0.579289 
0.494127 0.641741 0.549414 
0.483042 0.670017 0.552482 
0.480193 0.665666 0.550584 
nan nan nan
0.461593 0.650686 0.534755 
0.441145 0.626616 0.503091 
nan nan nan
0.451323 0.658098 0.546398 
nan nan nan
0.405435 0.655732 0.544182 
0.38214 0.635819 0.522672 
0.397364 0.709677 0.588494 
0.328455 0.631753 0.508694 
0.309722 0.674979 0.542431 
nan nan nan
0.297256 0.73023 0.602846 
0.247708 0.695986 0.583117 
0.190045 0.646977 0.5349 
0.188457 0.654539 0.577223 
0.241895 0.69543 0.676439 
0.302908 0.738152 0.799526 
0.196358 0.660001 0.709826 
0.164954 0.613567 0.718171 
0.281416 0.72194 0.854971 
0.223518 0.60453 0.828491 
0.236468 0.567234 0.868721 
0.243137 0.501933 0.922892 
0.308069 0.479107 1.01033 
0.20326 0.377372 0.911477 
0.20436 0.294901 0.92237 
0.181884 0.244721 0.908163 
0.131723 0.188259 0.902221 
0.116022 0.140404 0.906952 
0.118907 0.127449 0.897531 
0.0568503 0.106213 0.935821 
0.0338078 0.102969 0.94147 
0.0226864 0.0991043 0.934966 
0.0327393 0.0948994 0.908944 
-0.0497334 0.0958383 0.97039 
-0.024512 0.0995127 0.944441 
-0.0559663 0.111026 0.942424 
-0.0695243 0.116763 0.943637 
-0.0725129 0.121916 0.934526 
nan nan nan
-0.126798 0.140076 0.947854 
-0.125905 0.148095 0.921839 
-0.161334 0.162219 0.925932 
-0.120582 0.155414 0.857432 
-0.207164 0.180141 0.926445 
-0.223055 0.199328 0.894905 
-0.234499 0.212901 0.863422 
-0.294012 0.223453 0.843142 
-0.238395 0.232271 0.792977 
-0.186559 0.219043 0.740987 
-0.302762 0.246619 0.790424 
-0.308528 0.271783 0.780417 
-0.322444 0.254564 0.740457 
-0.286011 0.222822 0.655121 
-0.404244 0.311695 0.724506 
-0.339815 0.285395 0.641842 
-0.28396 0.26026 0.573748 
-0.407532 0.344121 0.584206 
-0.390008 0.346652 0.528695 
-0.428995 0.379553 0.53705 
-0.471253 0.422213 0.509164 
-0.36937 0.386414 0.467024 
-0.420744 0.473266 0.48119 
-0.396548 0.476161 0.477557 
-0.32646 0.458579 0.483422 
-0.320288 0.481289 0.494539 
-0.278234 0.521133 0.493676 
-0.280939 0.569618 0.476863 
-0.249925 0.594168 0.461809 
-0.179226 0.563818 0.453712 
-0.216186 0.613634 0.466138 
-0.199313 0.631892 0.476719 
-0.101878 0.550641 0.394962 
-0.284871 0.615905 0.402986 
-0.149562 0.530873 0.308209 
-0.303227 0.587771 0.314944 
-0.321842 0.583323 0.284329 
-0.262173 0.507406 0.218777 
-0.395678 0.599322 0.247557 
-0.389448 0.58036 0.223937 
-0.398097 0.590039 0.197542 
-0.414243 0.591291 0.179277 
-0.430068 0.587032 0.162747 
-0.466179 0.604916 0.159262 
-0.407401 0.559672 0.1417 
-0.424265 0.570767 0.146701 
-0.421873 0.572547 0.129731 
-0.409969 0.567579 0.110596 
nan nan nan
-0.444068 0.589353 0.082459 
-0.468278 0.604239 0.0588132 
-0.464903 0.597754 0.0294709 
-0.471338 0.598848 0.00270591 
-0.49959 0.621821 -0.0049515 
-0.460585 0.594448 -0.0285608 
-0.447478 0.5919 -0.0399613 
-0.43344 0.595047 -0.0547512 
-0.41478 0.604303 -0.0685014 
-0.378227 0.593671 -0.116453 
-0.350796 0.565672 -0.13684 
-0.3488 0.61882 -0.18935 
-0.325102 0.56272 -0.190415 
-0.296216 0.544873 -0.213141 
-0.279848 0.618382 -0.328196 
-0.2184 0.524316 -0.360584 
-0.172177 0.446725 -0.33465 
-0.150185 0.445048 -0.375955 
-0.127613 0.420649 -0.395199 
-0.114081 0.385829 -0.418964 
-0.0704243 0.375051 -0.430605 
-0.0949884 0.427692 -0.506674 
-0.0586429 0.398557 -0.52523 
-0.0917312 0.418551 -0.602386 
-0.100956 0.428401 -0.63264 
-0.0976894 0.390194 -0.612406 
-0.133678 0.376919 -0.639034 
-0.145065 0.358043 -0.630141 
-0.155223 0.315766 -0.611787 
-0.180625 0.316726 -0.595487 
-0.238312 0.390396 -0.671795 
-0.229723 0.294531 -0.55881 
-0.251806 0.254832 -0.557822 
-0.279955 0.244933 -0.523966 
-0.323473 0.278439 -0.537352 
-0.325658 0.265545 -0.521988 
-0.295614 0.209908 -0.475635 
-0.337388 0.266907 -0.494296 
-0.356022 0.251324 -0.423588 
-0.426243 0.364244 -0.484969 
-0.436908 0.317501 -0.355752 
-0.455676 0.355362 -0.391975 
-0.472492 0.362742 -0.357231 
-0.509531 0.430622 -0.392208 
-0.485629 0.402719 -0.341879 
-0.52143 0.429988 -0.333997 
-0.545636 0.482805 -0.333623 
-0.565526 0.468631 -0.254018 
nan nan nan
-0.608305 0.506081 -0.224835 
-0.591016 0.46333 -0.182188 
-0.599872 0.462867 -0.149368 
-0.61063 0.450316 -0.162365 
-0.621239 0.443206 -0.157143 
-0.638865 0.438996 -0.146321 
-0.655013 0.411378 -0.162232 
-0.682094 0.444094 -0.11641 
-0.708545 0.464486 -0.085456 
-0.709734 0.458666 -0.083679 
-0.719632 0.465401 -0.0703896 
-0.745743 0.497096 -0.0485465 
-0.733141 0.469548 -0.0431975 
-0.733574 0.466455 -0.036669 
-0.745095 0.474975 -0.0138769 
-0.73408 0.447819 -0.0156413 
-0.723663 0.4314 -0.0215313 
-0.729914 0.410159 -0.00795655 
-0.752054 0.4073 0.00932928 
-0.726381 0.356931 0.005138 
-0.741718 0.357648 0.016568 
-0.766473 0.356928 0.0373791 
-0.702729 0.307422 0.0141459 
-0.738234 0.321419 0.0849972 
-0.702397 0.29839 0.0881608 
-0.735543 0.314942 0.127682 
-0.715913 0.326064 0.149945 
nan nan nan
-0.716147 0.330267 0.217953 
-0.695327 0.309762 0.230147 
-0.686909 0.30489 0.220067 
-0.655983 0.273095 0.199254 
nan nan nan
-0.602407 0.237561 0.183821 
-0.581445 0.237252 0.141845 
-0.501513 0.160672 0.113207 
-0.46416 0.124294 0.106049 
nan nan nan
-0.424282 0.042769 0.133038 
-0.395597 -0.024915 0.178603 
-0.416975 -0.363741 0.617701 
nan nan nan
-0.478382 -0.40939 0.602647 
-0.522536 -0.465376 0.59153 
-0.551616 -0.626119 0.717407 
-0.57127 -0.610492 0.625771 
-0.616011 -0.622073 0.512083 
-0.650254 -0.603775 0.493556 
-0.671186 -0.614444 0.598266 
-0.718935 -0.558269 0.517928 
-0.756279 -0.554946 0.592581 
-0.760166 -0.499496 0.580991 
-0.764275 -0.469195 0.550873 
-0.802672 -0.496089 0.572861 
nan nan nan
-0.794607 -0.344652 0.435642 
-0.806456 -0.429429 0.479842 
-0.777175 -0.297617 0.387666 
-0.770479 -0.277922 0.381409 
-0.728857 -0.215041 0.341209 
-0.754492 -0.209225 0.374359 
-0.745428 -0.150758 0.370778 
-0.742092 -0.167246 0.364292 
-0.755506 -0.180736 0.392457 
nan nan nan
-0.756119 -0.130205 0.404848 
-0.778202 -0.0846907 0.39724 
-0.784976 -0.068919 0.419613 
-0.768818 -0.098023 0.463458 
-0.760592 -0.0906135 0.49798 
-0.745037 -0.0357996 0.494845 
-0.736297 -0.0163248 0.509478 
-0.721655 -0.0215373 0.525803 
-0.722748 -0.012541 0.544012 
-0.712987 0.0162998 0.554798 
-0.718856 0.0447314 0.571598 
-0.698841 0.0689784 0.575752 
-0.719033 0.110301 0.575506 
-0.706974 0.116369 0.597362 
nan nan nan
-0.601326 0.0879486 0.589719 
-0.638011 0.126067 0.598608 
-0.663138 0.168689 0.601585 
-0.632087 0.149071 0.576615 
-0.620923 0.146331 0.528922 
-0.635297 0.154533 0.493714 
-0.667174 0.166753 0.455363 
-0.734619 0.189397 0.448774 
-0.782066 0.214172 0.461373 
-0.760525 0.182279 0.44146 
-0.763616 0.171785 0.433609 
-0.793622 0.175837 0.418093 
-0.776287 0.156831 0.398895 
-0.780706 0.154646 0.392023 
-0.754106 0.132982 0.37043 
-0.816477 0.160207 0.373059 
-0.785181 0.141991 0.355223 
-0.805958 0.153346 0.347105 
-0.792798 0.139058 0.334774 
-0.813185 0.142507 0.317629 
-0.838533 0.153085 0.299919 
-0.81798 0.123328 0.287474 
-0.846473 0.121184 0.256363 
nan nan nan
-0.823489 0.0780383 0.211006 
-0.834928 0.0658337 0.191073 
-0.857194 0.0801595 0.169854 
-0.840226 0.0466157 0.159712 
-0.858307 0.0250758 0.144696 
-0.856122 -0.00043913 0.121144 
-0.852837 -0.0406082 0.0946067 
-0.842367 -0.0763427 0.0819597 
-0.839201 -0.101045 0.0676078 
-0.834691 -0.160037 0.0267809 
-0.822694 -0.213548 -0.00243645 
-0.786777 -0.239129 0.00632911 
-0.728389 -0.298386 0.0046824 
-0.816596 -0.29082 -0.0919373 
-0.760274 -0.318699 -0.113309 
-0.631146 -0.351096 -0.0803774 
-0.719019 -0.331995 -0.146962 
-0.710456 -0.348549 -0.183323 
-0.664119 -0.358849 -0.178487 
-0.668162 -0.353791 -0.182861 
-0.713397 -0.341027 -0.205541 
-0.690124 -0.349086 -0.193097 
-0.645029 -0.360116 -0.154315 
-0.704018 -0.355744 -0.171465 
-0.761747 -0.341616 -0.202891 
-0.688314 -0.377739 -0.148522 
