-0.729516 -0.383385 0.199119 
-0.756314 -0.364947 0.189624 
-0.904232 -0.478534 0.29083 
-0.836509 -0.308443 0.186553 
-0.825265 -0.295732 0.238041 
-0.922447 -0.398472 0.342719 
-0.804659 -0.268563 0.298737 
-0.803675 -0.255284 0.324018 
-0.824976 -0.266993 0.365189 
-0.790928 -0.230404 0.373439 
-0.762277 -0.304129 0.405994 
-0.848195 -0.425781 0.543706 
-0.740133 -0.359189 0.510728 
-0.714641 -0.375552 0.529171 
-0.692524 -0.368781 0.526921 
-0.759672 -0.402329 0.606635 
-0.678598 -0.364707 0.59035 
-0.732836 -0.356848 0.634838 
-0.674215 -0.324013 0.63833 
-0.723226 -0.346016 0.677008 
-0.625749 -0.314755 0.646841 
-0.634253 -0.312498 0.681833 
-0.62521 -0.29002 0.708734 
-0.641788 -0.314886 0.747468 
-0.662522 -0.351897 0.785053 
-0.649116 -0.38853 0.788768 
-0.557754 -0.320969 0.764997 
-0.615999 -0.389962 0.804964 
nan nan nan
-0.647501 -0.469644 0.82502 
-0.494155 -0.442415 0.802478 
-0.470219 -0.426983 0.821439 
-0.550718 -0.496064 0.792473 
-0.469831 -0.496749 0.779019 
-0.435614 -0.520296 0.75831 
-0.502672 -0.568374 0.759917 
-0.580261 -0.612232 0.757821 
-0.472587 -0.566295 0.73019 
-0.616049 -0.633156 0.716702 
-0.478844 -0.519108 0.625829 
-0.509254 -0.543523 0.604481 
nan nan nan
-0.542616 -0.602995 0.608519 
-0.483107 -0.531873 0.583981 
-0.53951 -0.618362 0.605663 
-0.470134 -0.599552 0.601516 
nan nan nan
-0.416685 -0.631904 0.610963 
-0.427417 -0.811224 0.620339 
-0.297335 -0.619049 0.612107 
-0.247509 -0.636177 0.605964 
-0.203092 -0.619136 0.578405 
-0.166885 -0.655007 0.523094 
-0.168707 -0.751818 0.521758 
-0.1505 -0.635015 0.452765 
-0.134581 -0.707331 0.458078 
-0.1099 -0.771816 0.455512 
-0.0789412 -0.718636 0.378513 
-0.0584138 -0.771185 0.428086 
-0.0106784 -0.74193 0.411773 
0.0252098 -0.739364 0.407853 
0.0499429 -0.751608 0.401372 
0.0879707 -0.733624 0.416282 
0.128872 -0.74587 0.4305 
0.155877 -0.742743 0.418898 
0.155669 -0.762926 0.407707 
0.176574 -0.819582 0.45974 
0.169943 -0.774447 0.509103 
0.173002 -0.624457 0.440298 
0.183259 -0.730348 0.556161 
0.179082 -0.694014 0.559238 
0.187243 -0.638184 0.55175 
0.192853 -0.622391 0.587265 
0.204857 -0.572531 0.616614 
0.196637 -0.554577 0.632591 
0.168131 -0.539603 0.629899 
0.215357 -0.55084 0.678242 
0.26513 -0.551073 0.674687 
0.27457 -0.499675 0.639763 
0.365957 -0.555489 0.730059 
0.352851 -0.486913 0.622299 
0.404041 -0.44702 0.648097 
0.423698 -0.400189 0.601815 
0.443464 -0.371999 0.673486 
0.449543 -0.33435 0.702044 
0.455856 -0.296969 0.72331 
0.520669 -0.287854 0.792454 
0.392358 -0.204259 0.610899 
0.367203 -0.197798 0.64891 
0.351047 -0.180524 0.688584 
0.321978 -0.138348 0.676947 
nan nan nan
0.371927 -0.103038 0.743948 
0.48574 -0.139858 0.952752 
0.331773 -0.0615352 0.751905 
0.361481 -0.103662 0.863302 
0.273101 -0.062827 0.776482 
0.268243 -0.106249 0.80232 
0.28999 -0.170899 0.873118 
0.228715 -0.154774 0.79496 
0.255688 -0.202479 0.828616 
0.285704 -0.250731 0.84541 
0.308831 -0.299053 0.867883 
0.295373 -0.36542 0.802021 
0.338242 -0.432502 0.984887 
0.279855 -0.383312 0.833783 
0.260911 -0.355147 0.787235 
0.240316 -0.354237 0.822849 
0.195463 -0.32044 0.732152 
0.152552 -0.380638 0.845986 
0.111213 -0.334217 0.741868 
0.0820091 -0.305881 0.693038 
0.0539496 -0.316235 0.645013 
0.021631 -0.294305 0.685271 
-0.0698651 -0.271507 0.858578 
-0.10588 -0.252534 0.824822 
-0.123792 -0.219225 0.562991 
-0.150995 -0.251462 0.685386 
-0.166499 -0.294124 0.77212 
nan nan nan
-0.238808 -0.302931 0.675855 
-0.251658 -0.314185 0.669573 
-0.32464 -0.29475 0.576534 
-0.34762 -0.279759 0.614994 
nan nan nan
-0.34156 -0.230569 0.669583 
-0.374589 -0.156522 0.540385 
-0.390001 -0.106483 0.567717 
nan nan nan
-0.369762 -0.0728889 0.732445 
-0.413584 -0.0287952 0.66841 
-0.399998 -0.0120846 0.862309 
-0.398427 0.0368693 0.62747 
-0.3457 0.0268955 0.836808 
-0.318481 0.0580683 0.628335 
-0.322038 0.123181 0.674125 
nan nan nan
-0.327439 0.272498 0.634001 
nan nan nan
-0.390664 0.414006 0.574161 
-0.382792 0.437068 0.554239 
-0.319947 0.465295 0.545825 
-0.294125 0.550678 0.684963 
-0.293154 0.530729 0.585532 
-0.291076 0.535154 0.574756 
-0.277995 0.48714 0.500737 
-0.258377 0.533272 0.489223 
-0.218864 0.649486 0.630681 
-0.249753 0.600029 0.426311 
-0.251511 0.609503 0.388046 
-0.257016 0.61784 0.33979 
-0.236521 0.621309 0.296893 
-0.257239 0.647474 0.251099 
-0.249009 0.663306 0.224882 
-0.25904 0.687818 0.182242 
-0.25533 0.660774 0.153841 
-0.261798 0.716123 0.131072 
-0.231065 0.697941 0.11101 
-0.226107 0.721529 0.0879405 
-0.247486 0.741467 0.0590213 
-0.29424 0.770441 0.000643008 
-0.282109 0.846356 -0.0815645 
-0.309271 0.853304 -0.0896938 
-0.388219 0.791441 -0.0398383 
-0.405955 0.781288 -0.0419819 
-0.445743 0.735526 -0.0478364 
-0.481253 0.729058 -0.0628421 
-0.532792 0.804113 -0.0821046 
-0.555909 0.643583 -0.128813 
-0.561245 0.705572 -0.0990622 
-0.604351 0.731468 -0.0993565 
-0.646652 0.832057 -0.0734756 
-0.653695 0.671775 -0.0578559 
-0.649905 0.669828 -0.0129616 
-0.652366 0.678213 0.053179 
-0.661344 0.617712 0.102225 
-0.645963 0.606698 0.136972 
-0.695635 0.584939 0.170841 
-0.793731 0.573686 0.212969 
-0.681441 0.456336 0.136129 
-0.719782 0.336037 0.0486922 
-0.678727 0.32214 0.0744487 
-0.632881 0.32241 0.0919981 
-0.57034 0.307353 0.0904774 
-0.501744 0.262143 0.134465 
-0.421577 0.254315 0.0597312 
-0.352166 0.269864 0.0258434 
-0.278373 0.260148 -0.0153923 
-0.175713 0.305576 -0.171457 
-0.16688 0.21293 0.0721175 
-0.149108 0.200682 0.112777 
-0.142311 0.180818 0.0515117 
-0.0908669 0.244937 -0.138761 
-0.0696255 0.218996 -0.138132 
-0.0764124 0.100751 -0.0361853 
-0.0523162 0.0515062 0.0172054 
-0.0115894 0.0175802 0.0588315 
0.0373753 0.0745981 -0.0475592 
0.0527356 0.0523566 -0.024259 
0.0691607 0.0793163 -0.00750996 
0.0919919 0.121674 0.03487 
0.141706 0.139733 0.0837309 
0.196787 0.134337 0.0979445 
0.242881 0.10933 0.129875 
0.316014 0.0422242 0.111453 
0.386509 -0.0410313 0.107218 
0.435598 -0.063649 0.133295 
nan nan nan
0.524508 -0.112764 0.164084 
0.52879 -0.160548 0.220911 
0.609643 -0.104029 0.223747 
0.58558 -0.134732 0.328201 
0.615639 -0.0886048 0.364611 
0.590916 0.00462358 0.409164 
0.575811 0.0332566 0.428249 
0.552259 0.0772898 0.48198 
0.527334 0.105074 0.548635 
0.526984 0.172747 0.580767 
0.510667 0.220289 0.553642 
0.504589 0.242698 0.563894 
0.499949 0.272364 0.614387 
0.711245 0.412699 0.681298 
0.556201 0.295994 0.682015 
0.531549 0.287239 0.713216 
0.562521 0.349615 0.727736 
0.484419 0.362759 0.719377 
0.56798 0.409875 0.689004 
0.543023 0.421979 0.670083 
0.534423 0.430923 0.662772 
0.431762 0.404507 0.665832 
0.466008 0.480666 0.678775 
0.536014 0.578573 0.687302 
0.447601 0.528279 0.673458 
0.358168 0.457224 0.662323 
0.516643 0.59685 0.649981 
0.429677 0.523993 0.624741 
0.392966 0.453135 0.552318 
0.40411 0.532903 0.522913 
0.45702 0.667805 0.570643 
0.356051 0.548299 0.488062 
0.42088 0.697356 0.557385 
0.330089 0.543133 0.463507 
0.275287 0.522954 0.422207 
0.232129 0.502934 0.390372 
0.247982 0.61486 0.448419 
0.300024 0.752896 0.531228 
0.179051 0.677787 0.411735 
0.148888 0.802845 0.425174 
0.0921288 0.836778 0.409166 
0.0360884 0.922207 0.396869 
-0.052597 0.940663 0.392462 
-0.0729556 1.04752 0.407544 
-0.164486 0.96579 0.420015 
-0.234863 1.14532 0.395778 
-0.326161 0.968435 0.449939 
-0.400911 1.03006 0.390025 
-0.429636 0.952264 0.458506 
-0.482347 0.973567 0.404215 
-0.530205 0.966016 0.404806 
-0.570177 0.982846 0.375827 
-0.595972 0.86537 0.447055 
-0.632217 1.02407 0.333239 
-0.640538 0.956122 0.361578 
-0.6509 1.04434 0.312873 
-0.622212 1.00219 0.345218 
-0.611291 0.954354 0.403929 
-0.644942 1.09973 0.299531 
-0.548709 0.979288 0.365708 
-0.539326 0.996569 0.326811 
-0.501846 0.95186 0.320931 
-0.489157 0.960581 0.279766 
-0.52318 1.04566 0.225531 
-0.511863 0.938673 0.242016 
-0.508562 0.971621 0.202113 
-0.491394 1.05659 0.149543 
-0.450969 0.973472 0.182326 
-0.429112 0.996768 0.172392 
-0.384418 1.02752 0.171115 
-0.368141 1.0084 0.195312 
-0.329412 1.09717 0.155838 
-0.290848 1.16552 0.121836 
-0.269875 1.02366 0.169243 
-0.248187 1.00529 0.182804 
-0.252636 1.01287 0.185432 
-0.219868 1.04408 0.189241 
-0.194984 1.01532 0.212664 
-0.153868 1.16393 0.17943 
-0.159524 1.01148 0.229373 
-0.123079 1.05143 0.226831 
-0.100231 0.942687 0.257429 
-0.0351178 1.14642 0.252229 
-0.0157645 0.949408 0.299586 
nan nan nan
0.0609521 1.15499 0.268522 
0.122457 1.01724 0.258269 
0.120248 1.03526 0.235736 
0.139911 1.03586 0.205786 
0.157387 1.02812 0.183093 
0.196835 1.12633 0.129994 
0.0934272 0.911798 0.102568 
0.124947 0.981741 0.0805175 
0.126992 0.903997 0.0793898 
0.160543 0.919649 0.0686729 
0.298469 1.06928 0.112595 
0.151045 0.803341 0.0803569 
0.217277 0.826698 0.110016 
0.229631 0.864495 0.182459 
0.348236 0.983948 0.247155 
0.297168 0.822571 0.218448 
0.435597 0.935117 0.266094 
0.343963 0.71038 0.146685 
0.387659 0.739714 0.200299 
0.505877 0.864153 0.309514 
0.429654 0.688896 0.257142 
0.487903 0.697995 0.307709 
0.482854 0.605898 0.300908 
0.463349 0.496033 0.289707 
0.456291 0.445476 0.288793 
0.521052 0.45126 0.303022 
0.57716 0.466439 0.321626 
0.533956 0.388902 0.270924 
0.527769 0.346042 0.221129 
0.714126 0.461308 0.182767 
0.612708 0.411956 0.0631471 
0.582812 0.418957 0.0083098 
nan nan nan
0.566523 0.414745 -0.100635 
0.473696 0.385022 -0.0917829 
0.453047 0.424238 -0.161661 
0.443649 0.44723 -0.252207 
0.449838 0.47497 -0.256933 
0.463603 0.500003 -0.293333 
0.458932 0.526787 -0.321304 
0.445641 0.514728 -0.362444 
0.459382 0.486334 -0.411568 
0.476937 0.485853 -0.453622 
0.490659 0.505034 -0.463837 
0.518015 0.517192 -0.474835 
0.546196 0.63717 -0.414846 
0.567517 0.516254 -0.49489 
0.600523 0.503298 -0.467542 
0.613369 0.490824 -0.451827 
0.627389 0.435288 -0.441569 
0.659789 0.384149 -0.427144 
0.727114 0.3697 -0.417594 
0.748059 0.352827 -0.389202 
0.712468 0.354338 -0.278844 
0.724849 0.358712 -0.265975 
0.817604 0.328706 -0.312813 
0.753189 0.311292 -0.261638 
0.712058 0.30058 -0.279736 
0.724124 0.285873 -0.336226 
0.775127 0.282229 -0.41325 
0.70968 0.281599 -0.409241 
0.678157 0.269531 -0.391851 
0.658986 0.24684 -0.411759 
0.639629 0.239203 -0.377506 
nan nan nan
0.630432 0.231565 -0.409609 
0.563546 0.255346 -0.412676 
nan nan nan
0.626271 0.231709 -0.526896 
nan nan nan
0.629778 0.218272 -0.545666 
0.592124 0.212818 -0.520283 
0.709818 0.228759 -0.626561 
0.574228 0.152819 -0.505394 
0.594642 0.109382 -0.581442 
nan nan nan
0.634428 0.176999 -0.728308 
0.536427 0.110968 -0.664943 
0.448187 0.0683127 -0.550405 
0.440998 0.100542 -0.580651 
0.467239 0.201108 -0.69375 
0.478143 0.248099 -0.816582 
0.304244 0.185241 -0.601622 
0.250417 0.19686 -0.575121 
0.374934 0.316801 -0.84646 
0.24821 0.312681 -0.669808 
0.209694 0.346782 -0.728658 
0.116678 0.419584 -0.713876 
0.148998 0.414848 -0.895038 
-0.0354596 0.417096 -0.681875 
-0.0752084 0.443605 -0.753105 
-0.142507 0.509313 -0.767421 
-0.207436 0.502008 -0.724526 
-0.228651 0.560284 -0.737287 
-0.212376 0.592829 -0.851426 
-0.300475 0.556738 -0.72861 
-0.335017 0.537567 -0.717954 
-0.325274 0.576076 -0.794778 
-0.25887 0.602777 -0.945119 
-0.385392 0.56066 -0.734117 
-0.358191 0.551793 -0.786827 
-0.352117 0.520006 -0.804894 
-0.358001 0.526157 -0.806697 
-0.336796 0.510303 -0.886281 
nan nan nan
-0.383885 0.442318 -0.821723 
-0.362748 0.445651 -0.897748 
-0.374073 0.398699 -0.84239 
-0.313695 0.424241 -0.985942 
-0.399133 0.36433 -0.798045 
-0.418214 0.325227 -0.78208 
-0.358417 0.313179 -0.802643 
-0.351985 0.301249 -0.741693 
-0.295686 0.259376 -0.862065 
-0.234568 0.292142 -0.979855 
-0.29502 0.222821 -0.779686 
-0.266038 0.182934 -0.779154 
-0.250736 0.143599 -0.799502 
-0.228826 0.0913183 -0.966601 
-0.25952 0.0992223 -0.734096 
-0.226729 0.0969766 -0.826306 
-0.189631 0.0632534 -0.996022 
-0.154544 0.051677 -0.781619 
-0.0878097 0.0372213 -0.834132 
-0.0980694 -0.0178521 -0.78565 
-0.0939579 -0.0602305 -0.752949 
-0.0311859 -0.147207 -0.959919 
-0.027886 -0.164285 -0.761762 
0.0168888 -0.135258 -0.813885 
0.0517284 -0.134658 -0.83261 
0.080802 -0.0457718 -0.775197 
0.15993 -0.0963895 -0.766807 
0.198563 -0.118506 -0.735722 
0.242855 -0.120351 -0.729422 
0.283018 -0.135182 -0.856177 
0.292529 -0.0711744 -0.774789 
0.24242 -0.0272709 -0.826081 
0.240532 -0.0927682 -0.981541 
0.221493 -0.134128 -0.736314 
0.221326 -0.258921 -0.918763 
0.168669 -0.232411 -0.720399 
0.155506 -0.299172 -0.699525 
0.184795 -0.377746 -0.909663 
0.120123 -0.333878 -0.648326 
0.11371 -0.376406 -0.653252 
0.0949644 -0.409209 -0.657398 
0.0809809 -0.46096 -0.685735 
0.0619965 -0.501419 -0.679057 
0.0480787 -0.489853 -0.621708 
0.0956839 -0.56148 -0.801182 
0.0860386 -0.505304 -0.721909 
0.113772 -0.517992 -0.730945 
0.160057 -0.533619 -0.742092 
nan nan nan
0.154622 -0.575546 -0.646786 
0.158241 -0.567476 -0.611811 
0.178038 -0.599566 -0.610715 
0.176563 -0.646007 -0.58242 
0.186257 -0.6718 -0.584582 
0.2355 -0.645801 -0.547339 
0.250826 -0.649229 -0.518898 
0.281544 -0.62917 -0.517657 
0.296593 -0.620472 -0.494722 
0.299694 -0.635991 -0.441289 
0.309321 -0.610989 -0.356904 
0.354297 -0.669992 -0.320602 
0.325752 -0.571461 -0.281318 
0.321774 -0.596306 -0.268104 
0.428011 -0.770201 -0.230312 
0.377965 -0.676931 -0.135509 
0.345074 -0.6257 -0.04857 
0.368043 -0.655596 -0.0365706 
0.366646 -0.608495 -0.0254253 
0.35201 -0.563391 0.0305225 
0.388417 -0.555952 0.0784965 
0.486311 -0.59586 0.0993045 
0.508463 -0.551964 0.117629 
0.579812 -0.582134 0.192342 
0.613786 -0.662381 0.204576 
0.545253 -0.53968 0.244045 
0.553707 -0.591809 0.279138 
0.542219 -0.625723 0.277248 
0.48571 -0.560179 0.313803 
0.467819 -0.651034 0.281045 
0.588892 -0.772661 0.253044 
0.40555 -0.718751 0.19532 
0.355815 -0.744232 0.162244 
0.310124 -0.755427 0.115084 
0.318384 -0.797918 0.108619 
0.284549 -0.79757 0.105816 
0.221962 -0.70622 0.107566 
0.215165 -0.772447 0.0640648 
0.116587 -0.692473 0.0497842 
0.137528 -0.883607 -0.0809247 
0.0466788 -0.733232 -0.0515366 
0.0587853 -0.711237 -0.109174 
0.0172254 -0.598599 -0.148045 
0.0452571 -0.641566 -0.177903 
0.040964 -0.597972 -0.196269 
0.0473183 -0.679293 -0.229477 
0.0717818 -0.766183 -0.249719 
0.00888573 -0.707793 -0.275366 
nan nan nan
0.046832 -0.819634 -0.360083 
-0.0315966 -0.757957 -0.395017 
-0.0631596 -0.755058 -0.404825 
-0.0539372 -0.783478 -0.4109 
-0.0680658 -0.805043 -0.418369 
-0.0711265 -0.825994 -0.422515 
-0.0139872 -0.966257 -0.475036 
-0.118739 -0.895066 -0.381177 
-0.17855 -0.887376 -0.333814 
-0.148439 -0.942609 -0.375663 
-0.175122 -0.943233 -0.367478 
-0.244611 -0.919289 -0.274092 
-0.23054 -0.904049 -0.341966 
-0.248088 -0.88733 -0.335221 
-0.266377 -0.835711 -0.328892 
-0.255355 -0.832487 -0.401323 
-0.24529 -0.842424 -0.439641 
-0.259448 -0.824015 -0.464373 
-0.282955 -0.802857 -0.442703 
-0.241996 -0.847506 -0.535824 
-0.279685 -0.803787 -0.495727 
-0.338069 -0.758511 -0.464822 
-0.250449 -0.827096 -0.63978 
-0.338657 -0.684568 -0.535422 
-0.350059 -0.651029 -0.56287 
-0.353118 -0.639497 -0.559367 
-0.327762 -0.636675 -0.57472 
nan nan nan
-0.365153 -0.53885 -0.678801 
-0.363042 -0.496458 -0.675786 
-0.363668 -0.491163 -0.65439 
-0.361937 -0.46184 -0.62534 
nan nan nan
-0.329432 -0.445457 -0.577801 
-0.303745 -0.470583 -0.505589 
-0.351375 -0.426353 -0.4318 
-0.364632 -0.412395 -0.369721 
nan nan nan
-0.401675 -0.397312 -0.270085 
-0.491665 -0.325461 -0.25633 
-0.509852 -0.244451 -0.263017 
nan nan nan
-0.556639 -0.172515 -0.236868 
-0.616381 -0.117049 -0.178072 
-0.516749 -0.00243308 -0.326168 
-0.61158 -0.0579511 -0.265204 
-0.735278 -0.0740884 -0.209901 
-0.752762 -0.056581 -0.232263 
-0.706204 0.00420856 -0.305758 
-0.788618 -0.0768016 -0.270901 
-0.754591 -0.0804567 -0.323216 
-0.721 -0.0819973 -0.366827 
-0.760372 -0.103684 -0.360466 
-0.725644 0.0108562 -0.412677 
nan nan nan
-0.81014 -0.152382 -0.415769 
-0.839419 0.113565 -0.458805 
-0.908179 -0.102877 -0.435496 
-0.940994 -0.103414 -0.423914 
-0.943169 -0.169121 -0.467776 
-0.915703 -0.149421 -0.537606 
-0.912826 -0.197893 -0.573055 
-0.951927 -0.160812 -0.561912 
-0.983024 -0.0869537 -0.554903 
nan nan nan
-0.942864 -0.151094 -0.576392 
-0.897939 -0.209208 -0.619185 
-0.834997 -0.167184 -0.629567 
-0.810626 -0.106094 -0.619685 
-0.792958 -0.0948403 -0.633979 
-0.774178 -0.11928 -0.690243 
-0.778988 -0.0910466 -0.725872 
-0.782635 -0.0733737 -0.740812 
-0.80908 -0.0612964 -0.787185 
-0.771698 -0.0525371 -0.789861 
-0.739112 -0.0423343 -0.822051 
-0.699895 -0.0337841 -0.844791 
-0.678507 -0.0279751 -0.842469 
-0.681349 0.037923 -0.846791 
nan nan nan
-0.589679 -0.00173256 -0.985656 
-0.596632 0.000847572 -0.857108 
-0.590498 0.0420297 -0.808674 
-0.564172 -0.0115392 -0.854814 
-0.514453 -0.0693966 -0.926789 
-0.490095 -0.0949433 -0.918733 
-0.469828 -0.134933 -0.899646 
-0.495727 -0.188528 -0.845896 
-0.602409 -0.300237 -0.880194 
-0.544205 -0.228785 -0.806725 
-0.552137 -0.241697 -0.772507 
-0.585516 -0.327424 -0.762271 
-0.560548 -0.270126 -0.693614 
-0.563247 -0.284179 -0.665298 
-0.543144 -0.254669 -0.629454 
-0.647001 -0.392471 -0.687659 
-0.581337 -0.345906 -0.614682 
-0.605434 -0.384705 -0.61959 
-0.596051 -0.376778 -0.578136 
-0.613111 -0.440902 -0.557397 
-0.636453 -0.482452 -0.546631 
-0.631924 -0.459472 -0.509008 
-0.621212 -0.504575 -0.490064 
nan nan nan
-0.586652 -0.57899 -0.406542 
-0.620919 -0.573698 -0.366816 
-0.625774 -0.615331 -0.348224 
-0.644847 -0.592901 -0.325749 
-0.664556 -0.60111 -0.305432 
-0.704166 -0.570237 -0.271643 
-0.739797 -0.52238 -0.252355 
-0.75624 -0.511062 -0.231454 
-0.778476 -0.493674 -0.211743 
-0.821721 -0.454695 -0.11301 
-0.835014 -0.433937 -0.0492651 
-0.841147 -0.52788 0.0415865 
-0.872658 -0.583692 0.121466 
-0.722671 -0.395565 0.101554 
-0.730671 -0.431656 0.168044 
-0.766134 -0.547111 0.313548 
-0.658061 -0.395196 0.274025 
-0.63236 -0.377496 0.278533 
-0.675715 -0.470272 0.294091 
-0.659359 -0.465966 0.293879 
-0.572693 -0.414272 0.264358 
-0.633065 -0.45022 0.295238 
-0.724458 -0.563565 0.333143 
-0.69395 -0.495088 0.299325 
-0.649536 -0.403831 0.215938 
-0.775281 -0.521711 0.316643 
