-0.237827 0.707339 0.42209 
-0.218846 0.721392 0.409765 
-0.135164 0.626093 0.365256 
-0.153423 0.733299 0.396005 
-0.123153 0.706718 0.425911 
-0.066823 0.630346 0.397415 
-0.0984478 0.693164 0.469535 
-0.0875522 0.677462 0.480891 
-0.0616807 0.649502 0.485106 
-0.0594491 0.659081 0.511465 
-0.0793641 0.612643 0.531514 
-0.00904908 0.473683 0.499166 
-0.0547963 0.495088 0.572276 
-0.0500415 0.465049 0.57706 
-0.052945 0.463438 0.585939 
-0.00327388 0.426208 0.582294 
-0.0103241 0.421016 0.6109 
0.00363031 0.411566 0.632217 
-0.00891461 0.392893 0.63589 
-0.00142877 0.392397 0.651668 
-0.025965 0.348728 0.644506 
-0.0188014 0.340718 0.67027 
-0.0103643 0.322534 0.702552 
-0.0311255 0.346686 0.730611 
-0.0502708 0.352869 0.761164 
-0.0750561 0.34832 0.775135 
-0.0776238 0.280226 0.731456 
-0.0964675 0.327298 0.766592 
nan nan nan
-0.127818 0.348398 0.786816 
-0.143923 0.287735 0.752738 
-0.156479 0.261642 0.739829 
-0.172764 0.303294 0.751028 
-0.18647 0.289632 0.73663 
-0.216215 0.270109 0.709004 
-0.213312 0.326702 0.731857 
-0.23169 0.371373 0.751259 
-0.244781 0.307449 0.678377 
-0.252896 0.39943 0.715241 
-0.257085 0.326034 0.611184 
-0.268276 0.367094 0.649032 
nan nan nan
-0.292245 0.380567 0.701451 
-0.299677 0.308193 0.643294 
-0.338208 0.352174 0.709572 
-0.359491 0.299134 0.699667 
nan nan nan
-0.390199 0.25276 0.708937 
-0.46992 0.285522 0.759432 
-0.428914 0.165652 0.687778 
-0.45782 0.137628 0.681085 
-0.48876 0.0933481 0.672896 
-0.527282 0.0855994 0.641071 
-0.531857 0.10377 0.594435 
-0.57023 0.0832528 0.643479 
-0.56105 0.0876743 0.580854 
-0.569435 0.0728545 0.551423 
-0.644778 0.0798349 0.554799 
-0.588265 0.0308646 0.515361 
-0.606725 0.0122437 0.520884 
-0.614133 -0.0255884 0.506518 
-0.642486 -0.0411655 0.507509 
-0.655361 -0.0599539 0.501377 
-0.683096 -0.0674744 0.515901 
-0.694126 -0.0666832 0.512172 
-0.712474 -0.059728 0.517433 
-0.748133 -0.0590137 0.552462 
-0.711906 -0.0746723 0.571466 
-0.640932 -0.124531 0.521031 
-0.697789 -0.120538 0.602534 
-0.676933 -0.140914 0.601771 
-0.654805 -0.16141 0.600023 
-0.658085 -0.182547 0.626889 
-0.615493 -0.210352 0.614623 
-0.613026 -0.223571 0.624594 
-0.610755 -0.21901 0.640834 
-0.580298 -0.235449 0.598472 
-0.575469 -0.250753 0.593695 
-0.595402 -0.279713 0.600246 
-0.532612 -0.313579 0.551004 
-0.553971 -0.361917 0.571987 
-0.542066 -0.413094 0.575472 
-0.545088 -0.441901 0.561382 
-0.521898 -0.464038 0.583762 
-0.505453 -0.502574 0.587329 
-0.481062 -0.551856 0.598235 
-0.46999 -0.623392 0.64431 
-0.403001 -0.58094 0.552328 
-0.360331 -0.582395 0.590265 
-0.342646 -0.576583 0.610935 
-0.279389 -0.56513 0.592632 
nan nan nan
-0.306 -0.656309 0.668244 
-0.336596 -0.750312 0.809965 
-0.263158 -0.646098 0.646186 
-0.325006 -0.642366 0.727432 
-0.281834 -0.607377 0.669805 
-0.316562 -0.575887 0.699227 
-0.333374 -0.566663 0.727191 
-0.328214 -0.511454 0.670102 
-0.352122 -0.501574 0.692899 
-0.352306 -0.498226 0.723865 
-0.378524 -0.489203 0.778516 
-0.421661 -0.430718 0.750506 
-0.433566 -0.486565 0.909453 
-0.39319 -0.399098 0.787848 
-0.378653 -0.380327 0.755637 
-0.373875 -0.382758 0.828261 
-0.353906 -0.359813 0.764009 
-0.326624 -0.331024 0.829619 
-0.320198 -0.300634 0.747661 
-0.288862 -0.269433 0.690912 
-0.291845 -0.232049 0.642609 
-0.246278 -0.224603 0.684521 
-0.183034 -0.214278 0.798529 
-0.176866 -0.182826 0.765736 
-0.191999 -0.145665 0.602746 
-0.179635 -0.145118 0.715164 
-0.172599 -0.156453 0.789115 
nan nan nan
-0.173581 -0.0726682 0.739271 
-0.181347 -0.0421464 0.7384 
-0.161973 -0.0157857 0.660376 
-0.126901 -0.0132264 0.703614 
nan nan nan
-0.0906588 -0.00921028 0.712897 
-0.0656673 0.0146325 0.604073 
-0.0120177 -0.00359514 0.620185 
nan nan nan
0.0450306 -0.0521675 0.704675 
0.0834643 -0.0488924 0.68063 
0.141702 -0.0975991 0.799618 
0.118627 -0.0915332 0.619009 
0.161592 -0.135708 0.790331 
0.117345 -0.152281 0.606273 
0.181683 -0.158236 0.646148 
nan nan nan
0.278911 -0.229889 0.584947 
nan nan nan
0.404926 -0.217616 0.632321 
0.418326 -0.218797 0.633427 
0.445617 -0.243075 0.589524 
0.495929 -0.224975 0.697847 
0.501502 -0.235101 0.590233 
0.525954 -0.228419 0.586745 
0.502693 -0.265961 0.528463 
0.561195 -0.248169 0.509381 
0.644072 -0.200289 0.570259 
0.616932 -0.279649 0.467872 
0.631901 -0.304219 0.447914 
0.659775 -0.327931 0.419198 
0.704241 -0.383283 0.396446 
0.703623 -0.348758 0.355889 
0.702903 -0.347523 0.316716 
0.721802 -0.341775 0.295927 
0.812806 -0.349976 0.327607 
0.773896 -0.317549 0.28172 
0.854648 -0.326768 0.326751 
0.830395 -0.300843 0.318007 
0.816243 -0.27488 0.296949 
0.799367 -0.252149 0.243923 
0.756209 -0.228962 0.190091 
0.761824 -0.20807 0.178967 
0.819941 -0.176621 0.187787 
0.828745 -0.150752 0.178868 
0.856082 -0.103449 0.17811 
0.867684 -0.0609879 0.162487 
0.873618 -0.0417591 0.135057 
0.89804 -0.0243102 0.181877 
0.87565 -0.0154442 0.150483 
0.875279 0.0116947 0.140734 
0.862544 0.0391387 0.0961115 
0.845173 0.0735539 0.128582 
0.82992 0.0872787 0.123809 
0.799889 0.116936 0.0890158 
0.751203 0.191173 0.109112 
0.730244 0.167293 0.0929478 
0.679655 0.195016 0.0197207 
0.613438 0.219045 -0.0545955 
0.605134 0.207719 0.0791069 
0.56216 0.200006 0.183041 
0.506627 0.165762 0.138731 
0.496662 0.126727 0.111293 
0.454575 0.107971 0.0717877 
0.42947 0.0474867 0.111887 
0.381713 0.0204089 -0.0135327 
0.349533 -0.0292436 -0.0632137 
0.300364 -0.0756321 -0.120973 
0.246442 -0.129322 -0.236968 
0.239475 -0.202703 -0.0359937 
0.224352 -0.226798 0.00611543 
0.182586 -0.196289 -0.0554205 
0.158595 -0.186186 -0.182453 
0.118755 -0.197045 -0.162897 
0.08833 -0.224585 -0.0575201 
0.0570975 -0.236 -0.0114476 
0.011943 -0.268742 0.023628 
-0.00246429 -0.291452 -0.0548907 
-0.0104338 -0.320108 -0.044001 
-0.0148614 -0.352139 -0.0461483 
-0.0121524 -0.383777 -0.0347418 
-0.0242469 -0.427471 -0.0277018 
-0.0300901 -0.473701 -0.033577 
-0.0542293 -0.52158 -0.00268816 
-0.142231 -0.53922 0.0202074 
-0.222289 -0.571267 0.0497687 
-0.260803 -0.607074 0.0864304 
nan nan nan
-0.354305 -0.682281 0.106892 
-0.351745 -0.687503 0.157743 
-0.374633 -0.776074 0.155398 
-0.323616 -0.754822 0.218961 
-0.314638 -0.798306 0.24536 
-0.247035 -0.832683 0.251005 
-0.209045 -0.833134 0.253183 
-0.158937 -0.841233 0.296102 
-0.131558 -0.852851 0.346661 
-0.0756338 -0.873514 0.329023 
-0.0459056 -0.882694 0.292983 
-0.0213889 -0.891842 0.280068 
0.0284545 -0.907811 0.294188 
0.0999924 -1.01665 0.347831 
0.0574899 -0.922335 0.348328 
0.0587629 -0.912586 0.372775 
0.113774 -0.916782 0.370869 
0.124673 -0.875471 0.373186 
0.139182 -0.894439 0.365174 
0.155244 -0.883159 0.356022 
0.165624 -0.87913 0.349742 
0.143793 -0.823631 0.333394 
0.182229 -0.828928 0.323946 
0.242778 -0.865933 0.326537 
0.212446 -0.822922 0.309254 
0.193435 -0.775256 0.301661 
0.269291 -0.861838 0.304904 
0.228185 -0.816979 0.275451 
0.199325 -0.794091 0.246482 
0.264788 -0.804782 0.239394 
0.35914 -0.849905 0.274041 
0.304286 -0.769678 0.206073 
0.394399 -0.808243 0.247609 
0.332212 -0.743589 0.181477 
0.340645 -0.71617 0.151432 
0.328707 -0.690377 0.120073 
0.39121 -0.707303 0.138371 
0.47632 -0.728676 0.168906 
0.42398 -0.663559 0.0548017 
0.501565 -0.644833 0.0214949 
0.53104 -0.613173 -0.0175005 
0.588216 -0.587463 -0.0433224 
0.623839 -0.551859 -0.0592631 
0.663122 -0.542905 -0.106404 
0.672062 -0.473104 -0.0922168 
0.75309 -0.474817 -0.185353 
0.700961 -0.367973 -0.130985 
0.748648 -0.346782 -0.173281 
0.708369 -0.279156 -0.133567 
0.747189 -0.258208 -0.173909 
0.757068 -0.22994 -0.183787 
0.777701 -0.213393 -0.194918 
0.738656 -0.165505 -0.183144 
0.821985 -0.201728 -0.225957 
0.798861 -0.177016 -0.206528 
0.841855 -0.207613 -0.240496 
0.827233 -0.189895 -0.209584 
0.804954 -0.164866 -0.199976 
0.882442 -0.229755 -0.267897 
0.814838 -0.21203 -0.171156 
0.832611 -0.220893 -0.164637 
0.821525 -0.238284 -0.128489 
0.856764 -0.256851 -0.117528 
0.920692 -0.274447 -0.144734 
0.878718 -0.25032 -0.106568 
0.927751 -0.274644 -0.105908 
0.958609 -0.305268 -0.134879 
0.916382 -0.3026 -0.0785488 
0.92362 -0.334328 -0.0806122 
0.917701 -0.355588 -0.0644421 
0.908482 -0.373416 -0.0495259 
0.947345 -0.432922 -0.0678446 
0.970151 -0.469179 -0.0898887 
0.913571 -0.448805 -0.0248802 
0.893926 -0.463125 -0.0103037 
0.88932 -0.467819 -0.00416799 
0.872525 -0.491121 -0.00419524 
0.836142 -0.50054 0.0118345 
0.903664 -0.564217 -0.0434086 
0.804862 -0.527755 0.0134542 
0.809726 -0.566675 0.00206967 
0.758852 -0.554595 0.0388239 
0.804675 -0.628937 -0.0107451 
0.720458 -0.612141 0.023017 
nan nan nan
0.829981 -0.711854 -0.00047067 
0.729701 -0.727251 -0.0513553 
0.74538 -0.738321 -0.0754038 
0.744736 -0.77802 -0.108924 
0.740804 -0.798981 -0.128231 
0.78397 -0.876783 -0.13145 
0.687909 -0.803495 -0.207612 
0.727362 -0.818434 -0.196835 
0.694723 -0.813983 -0.219568 
0.694435 -0.862041 -0.182753 
0.749098 -0.950849 -0.121022 
0.580083 -0.827738 -0.234609 
0.584111 -0.878018 -0.170965 
0.576999 -0.851108 -0.118155 
0.629603 -0.944225 -0.0172605 
0.53059 -0.893317 -0.0739848 
0.552549 -0.969566 -0.00660008 
0.421494 -0.894632 -0.11086 
0.415003 -0.925456 -0.0383345 
0.476793 -0.992143 0.0380278 
0.357345 -0.940856 0.0064332 
0.330525 -0.953512 0.0398287 
0.265066 -0.928651 0.0364595 
0.210346 -0.917116 0.0368138 
0.15703 -0.901969 0.0269948 
0.153854 -0.888377 0.00565159 
0.148631 -0.883766 0.01139 
0.11217 -0.883385 -0.0139088 
0.0557656 -0.901843 -0.0385145 
0.107445 -0.838934 -0.106319 
0.0899528 -0.856498 -0.147266 
0.0660052 -0.866098 -0.22836 
nan nan nan
0.0201759 -0.828722 -0.339775 
0.0359099 -0.811353 -0.323627 
0.0449846 -0.788378 -0.433322 
0.0478393 -0.767 -0.480436 
0.0649078 -0.731565 -0.508824 
0.0719964 -0.697931 -0.544937 
0.087282 -0.674633 -0.563357 
0.085635 -0.624897 -0.576697 
0.0683385 -0.618587 -0.611259 
0.0634695 -0.612555 -0.635086 
0.0826393 -0.597566 -0.663831 
0.0910906 -0.645076 -0.684975 
0.180148 -0.638714 -0.692372 
0.092628 -0.654305 -0.697477 
0.075337 -0.646949 -0.708551 
0.0506925 -0.644039 -0.720808 
0.0044946 -0.654827 -0.735267 
-0.023631 -0.677184 -0.740234 
-0.0349983 -0.728688 -0.743146 
-0.0578118 -0.75766 -0.739874 
-0.0599764 -0.759552 -0.691285 
-0.0732196 -0.775806 -0.697245 
-0.124916 -0.807852 -0.752288 
-0.134462 -0.78963 -0.723522 
-0.139245 -0.759706 -0.722842 
-0.153435 -0.752691 -0.747703 
-0.169364 -0.759334 -0.78636 
-0.167089 -0.7148 -0.765824 
-0.164171 -0.669589 -0.750621 
-0.187309 -0.649755 -0.757769 
-0.186196 -0.652459 -0.750352 
nan nan nan
-0.180556 -0.634103 -0.744613 
-0.157553 -0.604055 -0.706771 
nan nan nan
-0.188509 -0.619698 -0.770735 
nan nan nan
-0.190912 -0.583004 -0.782295 
-0.178164 -0.554642 -0.75959 
-0.22477 -0.599296 -0.863173 
-0.201333 -0.493062 -0.7428 
-0.258317 -0.480692 -0.799303 
nan nan nan
-0.247705 -0.522228 -0.930399 
-0.257786 -0.469152 -0.89958 
-0.273906 -0.385542 -0.829378 
-0.256993 -0.377628 -0.858938 
-0.195584 -0.43034 -0.990231 
-0.137657 -0.462698 -1.09202 
-0.196196 -0.329965 -0.96498 
-0.143659 -0.292142 -0.924984 
-0.0946834 -0.409984 -1.12695 
-0.0441282 -0.303567 -1.0132 
0.00645785 -0.282682 -1.02405 
0.0793968 -0.234142 -1.0243 
0.150458 -0.266059 -1.10755 
0.134753 -0.112412 -0.988718 
0.220498 -0.107157 -0.935604 
0.264036 -0.0719548 -0.909368 
0.303393 -0.0149188 -0.91296 
0.363952 -0.000469391 -0.906564 
0.371309 -0.0332575 -0.823782 
0.403872 0.0442497 -0.864623 
0.391855 0.0886589 -0.858644 
0.417839 0.047415 -0.815033 
0.419536 0.0213668 -0.764539 
0.424348 0.15162 -0.841844 
0.399205 0.119671 -0.807499 
0.380038 0.138242 -0.803253 
0.370261 0.146818 -0.798427 
0.361508 0.144527 -0.788751 
nan nan nan
0.333764 0.214638 -0.808189 
0.323484 0.172526 -0.783502 
0.294094 0.213821 -0.800515 
0.280314 0.14512 -0.732795 
0.267339 0.265656 -0.823107 
0.224201 0.274085 -0.827074 
0.186566 0.250802 -0.802176 
0.136678 0.323369 -0.788814 
0.115226 0.2574 -0.762843 
0.117214 0.154064 -0.713977 
0.0796169 0.303121 -0.783033 
0.0543231 0.295581 -0.801612 
0.006661 0.271499 -0.766302 
-0.0215057 0.192232 -0.726659 
-0.06979 0.329541 -0.798558 
-0.0881436 0.250906 -0.75732 
-0.1104 0.151368 -0.811801 
-0.174156 0.261729 -0.733011 
-0.222402 0.19486 -0.755576 
-0.251421 0.243025 -0.709728 
-0.309509 0.260353 -0.682542 
-0.33605 0.18724 -0.810945 
-0.356576 0.186272 -0.674768 
-0.350163 0.164567 -0.691286 
-0.336584 0.123269 -0.746774 
-0.313713 0.0856042 -0.685406 
-0.335193 0.0337171 -0.69009 
-0.361469 0.00844985 -0.65104 
-0.373771 -0.0327339 -0.64746 
-0.377035 -0.0881204 -0.731623 
-0.340718 -0.112178 -0.67169 
-0.330321 -0.122966 -0.672065 
-0.40786 -0.09837 -0.811496 
-0.40301 -0.0164134 -0.636247 
-0.512223 -0.0529487 -0.802075 
-0.479234 0.0362569 -0.63025 
-0.532603 0.0446774 -0.614207 
-0.625204 0.0126192 -0.734518 
-0.57506 0.10344 -0.568204 
-0.606536 0.10596 -0.580894 
-0.642866 0.100442 -0.576636 
-0.668829 0.106964 -0.563611 
-0.691679 0.118064 -0.552891 
-0.710983 0.167821 -0.54141 
-0.730004 0.0670253 -0.575577 
-0.717786 0.102092 -0.55987 
-0.728872 0.0767424 -0.549187 
-0.740587 0.0500593 -0.545896 
nan nan nan
-0.756493 0.0829583 -0.49308 
-0.780193 0.10063 -0.467084 
-0.793563 0.0853742 -0.439594 
-0.810592 0.0855165 -0.424248 
-0.85168 0.122701 -0.422251 
-0.824893 0.0589942 -0.398363 
-0.829848 0.0351113 -0.38301 
-0.830469 0.0168885 -0.372518 
-0.836645 -0.00936781 -0.369135 
-0.837448 -0.0557747 -0.326478 
-0.82134 -0.098172 -0.274329 
-0.882598 -0.11979 -0.255576 
-0.814127 -0.142702 -0.2314 
-0.811801 -0.154483 -0.199943 
-0.949825 -0.207903 -0.133335 
-0.855066 -0.244035 -0.0665145 
-0.790772 -0.25776 0.00244651 
-0.800591 -0.280356 0.022672 
-0.783869 -0.295614 0.0430999 
-0.740389 -0.30563 0.0856727 
-0.722913 -0.341911 0.128707 
-0.803053 -0.381645 0.143623 
-0.754094 -0.418996 0.18447 
-0.828358 -0.451114 0.227197 
-0.882755 -0.465747 0.243761 
-0.825538 -0.453063 0.259818 
-0.871238 -0.427904 0.278058 
-0.871988 -0.402022 0.287472 
-0.832652 -0.361 0.306036 
-0.849366 -0.321989 0.298188 
-0.983858 -0.341063 0.276368 
-0.864158 -0.230492 0.249652 
-0.849405 -0.186352 0.25875 
-0.831511 -0.145915 0.240414 
-0.866713 -0.120498 0.218035 
-0.856441 -0.105888 0.202489 
-0.778092 -0.10628 0.232157 
-0.835814 -0.0882735 0.192282 
-0.750965 -0.033807 0.184926 
-0.873037 0.00943206 0.108134 
-0.754171 0.0552124 0.0783875 
-0.747163 0.0416082 0.0534265 
-0.684546 0.0541772 0.0476586 
-0.711334 0.0440898 0.00584675 
-0.71439 0.0401847 -0.0176298 
-0.712164 0.0683212 -0.039847 
-0.67518 0.0654317 -0.0690603 
-0.697081 0.112301 -0.116094 
nan nan nan
-0.674857 0.133358 -0.181224 
-0.723901 0.163578 -0.188132 
-0.736636 0.192551 -0.211965 
-0.735672 0.201292 -0.184905 
-0.738067 0.215615 -0.180353 
-0.746966 0.238013 -0.176541 
-0.779144 0.227746 -0.140571 
-0.78607 0.272056 -0.185532 
-0.799102 0.311791 -0.223088 
-0.792471 0.321081 -0.215419 
-0.795231 0.335626 -0.229221 
-0.833407 0.36994 -0.27261 
-0.78691 0.365387 -0.251395 
-0.77824 0.37603 -0.253214 
-0.774785 0.39706 -0.287456 
-0.746462 0.399764 -0.259146 
-0.734447 0.391264 -0.230271 
-0.705452 0.407506 -0.22974 
-0.701443 0.433571 -0.249625 
-0.65479 0.410863 -0.185005 
-0.654084 0.424218 -0.20282 
-0.644154 0.455958 -0.235319 
-0.581806 0.405375 -0.157082 
-0.561894 0.440719 -0.262682 
-0.53216 0.422833 -0.244327 
-0.544788 0.445541 -0.29534 
-0.538969 0.432019 -0.31964 
nan nan nan
-0.508298 0.456304 -0.404097 
-0.470843 0.450828 -0.403227 
-0.454004 0.447959 -0.386144 
-0.425867 0.428534 -0.348534 
nan nan nan
-0.371009 0.404161 -0.325253 
-0.383714 0.362691 -0.253304 
-0.30342 0.338948 -0.188205 
-0.25245 0.35292 -0.159046 
nan nan nan
-0.17448 0.375148 -0.112918 
-0.0754882 0.420832 -0.124231 
0.00962053 0.428779 -0.106365 
nan nan nan
0.0641441 0.50066 -0.133707 
0.118854 0.545261 -0.169172 
0.278161 0.561391 -0.0913718 
0.223463 0.57218 -0.145581 
0.235821 0.636515 -0.238138 
0.217607 0.677931 -0.229877 
0.261032 0.69192 -0.140769 
0.213976 0.753257 -0.201498 
0.172005 0.75291 -0.127111 
0.11722 0.743735 -0.110243 
0.107874 0.751339 -0.140767 
0.163062 0.78527 -0.0769647 
nan nan nan
0.0256467 0.822447 -0.228382 
0.124945 0.859298 -0.127786 
0.0122792 0.871263 -0.245633 
-0.023345 0.893037 -0.236953 
-0.090485 0.932874 -0.274248 
-0.0825296 0.898088 -0.282316 
-0.141756 0.892156 -0.333114 
-0.115768 0.913188 -0.317645 
-0.0899784 0.896492 -0.31131 
nan nan nan
-0.121058 0.87997 -0.35278 
-0.174232 0.863416 -0.389353 
-0.145432 0.812924 -0.38261 
-0.0878976 0.806981 -0.395002 
-0.0642555 0.791284 -0.419601 
-0.120051 0.780659 -0.470379 
-0.115461 0.768392 -0.502858 
-0.095314 0.76149 -0.510551 
-0.0858582 0.771267 -0.538316 
-0.0777196 0.746851 -0.553449 
-0.0943858 0.730852 -0.588543 
-0.100378 0.690429 -0.60768 
-0.152835 0.68076 -0.630317 
-0.143032 0.69381 -0.657977 
nan nan nan
-0.0385008 0.599918 -0.614743 
-0.0905947 0.607789 -0.64785 
-0.15209 0.611922 -0.689289 
-0.120205 0.577045 -0.643343 
-0.124219 0.536966 -0.586514 
-0.149904 0.525189 -0.561639 
-0.194936 0.526016 -0.543916 
-0.263952 0.564605 -0.556209 
-0.326661 0.609803 -0.594403 
-0.284072 0.600119 -0.539912 
-0.282802 0.609552 -0.524489 
-0.329892 0.63774 -0.513516 
-0.295627 0.626429 -0.469055 
-0.298837 0.630928 -0.46112 
-0.27286 0.616665 -0.427543 
-0.353676 0.671899 -0.458425 
-0.31993 0.638007 -0.419828 
-0.350734 0.648316 -0.421496 
-0.331055 0.63967 -0.389958 
-0.362674 0.651146 -0.378515 
-0.406937 0.672538 -0.365609 
-0.359199 0.658063 -0.338329 
-0.399635 0.669886 -0.314675 
nan nan nan
-0.376749 0.654634 -0.231305 
-0.365677 0.674894 -0.204961 
-0.414593 0.685347 -0.189075 
-0.365915 0.689806 -0.164708 
-0.388106 0.709124 -0.142059 
-0.355173 0.722276 -0.113876 
-0.331967 0.738015 -0.0766019 
-0.306774 0.750438 -0.0480482 
-0.297074 0.767035 -0.0246205 
-0.311648 0.772372 0.081485 
-0.285886 0.757805 0.159947 
-0.260028 0.703678 0.167905 
-0.229539 0.644971 0.204328 
-0.27531 0.747796 0.307953 
-0.258958 0.682036 0.347174 
-0.229213 0.546408 0.343898 
-0.269905 0.647292 0.408954 
-0.27312 0.6546 0.455135 
-0.263724 0.601246 0.442805 
-0.266928 0.599482 0.450552 
-0.301147 0.656087 0.476868 
-0.280167 0.625073 0.456785 
-0.243501 0.545641 0.416051 
-0.254582 0.604275 0.426971 
-0.282339 0.689163 0.455971 
-0.2075 0.591441 0.404753 
