-0.967465 0.0967955 -0.317561 
-1.03161 0.165004 -0.234422 
-1.28047 0.148469 -0.0643232 
-1.02416 0.208357 -0.128989 
-1.02413 0.300273 -0.101966 
-1.19901 0.509863 -0.0376449 
-0.842636 0.36819 -0.0642243 
-0.781109 0.386316 -0.0567235 
-0.771085 0.434467 -0.0685796 
-0.773732 0.441725 -0.138932 
-0.749824 0.32717 -0.270949 
-0.894556 0.555461 -0.389975 
-0.671875 0.361664 -0.414866 
-0.654703 0.326457 -0.448639 
-0.628835 0.33716 -0.463847 
-0.629076 0.417771 -0.500197 
-0.599672 0.37988 -0.510484 
-0.677065 0.492733 -0.603898 
-0.621065 0.473758 -0.554451 
-0.656082 0.580991 -0.62892 
-0.604716 0.498657 -0.590215 
-0.4954 0.545159 -0.609168 
-0.523808 0.537501 -0.604393 
-0.453034 0.537958 -0.584982 
-0.45331 0.592068 -0.678243 
-0.448581 0.518546 -0.689684 
-0.479134 0.323831 -0.665028 
-0.442353 0.399561 -0.705528 
nan nan nan
-0.512076 0.455008 -0.902597 
-0.569239 0.266485 -0.71536 
-0.575797 0.226285 -0.668815 
-0.733492 0.267264 -0.786062 
-0.642761 0.157727 -0.697248 
-0.624698 0.0911661 -0.670912 
-0.745896 0.0976447 -0.731084 
-0.972154 -0.00829168 -0.863249 
-0.734416 -0.0677759 -0.691427 
-0.86017 -0.303279 -0.850516 
-0.632283 -0.0828061 -0.658332 
-0.622204 -0.0919879 -0.663473 
nan nan nan
-0.62468 -0.081857 -0.932121 
-0.546983 -0.0811729 -0.736852 
-0.445464 -0.0410706 -0.854406 
-0.458525 -0.0969543 -0.747538 
nan nan nan
-0.427863 -0.163564 -0.726016 
-0.427422 -0.369798 -0.913814 
-0.450697 -0.210081 -0.644291 
-0.458348 -0.262385 -0.61623 
-0.455684 -0.279479 -0.567286 
-0.452349 -0.349827 -0.558913 
-0.555177 -0.457636 -0.517286 
-0.437689 -0.353228 -0.501864 
-0.374606 -0.452126 -0.503675 
-0.362445 -0.543373 -0.612837 
-0.333686 -0.547744 -0.537231 
-0.4721 -0.664988 -0.616114 
-0.359899 -0.708847 -0.623844 
-0.343353 -0.749002 -0.617901 
-0.307235 -0.790031 -0.589089 
-0.298861 -0.845389 -0.564177 
-0.274636 -0.842058 -0.568382 
-0.251174 -0.943068 -0.601488 
-0.235631 -0.945802 -0.641258 
-0.192952 -0.845648 -0.611372 
-0.214383 -0.850756 -0.667887 
-0.353148 -1.00843 -0.956131 
-0.14732 -0.878226 -0.791632 
-0.100386 -0.940249 -0.855894 
-0.0413117 -0.982411 -0.926968 
-0.0239147 -0.834032 -0.863341 
0.00838785 -0.756246 -0.962793 
0.0395187 -0.733303 -0.881589 
0.0867138 -0.699437 -0.842689 
0.039927 -0.69823 -1.03284 
0.174132 -0.728352 -1.04034 
0.193558 -0.74051 -0.870369 
0.339359 -0.885888 -1.09601 
0.32958 -0.807717 -0.80374 
0.438685 -0.615868 -0.796205 
0.349253 -0.518359 -0.63791 
0.387455 -0.552958 -0.696211 
0.3792 -0.577929 -0.557925 
0.404289 -0.475943 -0.518012 
0.599259 -0.526589 -0.444638 
0.313825 -0.319115 -0.486094 
0.30767 -0.283855 -0.511015 
0.306862 -0.273341 -0.506012 
0.310175 -0.251567 -0.543509 
nan nan nan
0.307186 -0.24144 -0.535536 
0.480882 -0.21326 -0.663359 
0.262484 -0.193451 -0.581262 
0.28544 -0.163794 -0.660231 
0.254634 -0.181733 -0.678438 
0.2447 -0.203671 -0.736962 
0.264781 -0.216812 -0.870823 
0.221181 -0.237664 -0.712088 
0.222821 -0.256562 -0.722966 
0.194392 -0.326327 -0.726514 
0.173674 -0.355916 -0.707631 
0.158736 -0.340493 -0.542533 
0.0612505 -0.492999 -0.597156 
0.12566 -0.355579 -0.556815 
0.116763 -0.317589 -0.534943 
0.0967691 -0.297552 -0.53107 
0.13121 -0.278427 -0.513429 
0.0179862 -0.26735 -0.552691 
0.0544027 -0.191316 -0.570892 
0.0908321 -0.105113 -0.57928 
0.0598401 -0.117622 -0.590635 
0.0293508 -0.036194 -0.650322 
-0.0346971 -0.0547923 -0.880857 
-0.114039 0.00335728 -0.793427 
-0.132402 0.0442448 -0.526774 
-0.18008 0.0770257 -0.622745 
-0.125497 0.215888 -0.794879 
nan nan nan
-0.280536 0.0815935 -0.57545 
-0.301779 0.113767 -0.620675 
-0.306368 0.0948121 -0.507352 
-0.329844 0.12003 -0.514141 
nan nan nan
-0.299015 0.14703 -0.598763 
-0.227544 0.145091 -0.480125 
-0.196881 0.151345 -0.428025 
nan nan nan
-0.163136 0.172386 -0.421536 
-0.165245 0.230805 -0.415134 
-0.161781 0.354989 -0.493435 
-0.109786 0.199316 -0.323314 
-0.0253905 0.273249 -0.449544 
-0.093394 0.199325 -0.280618 
-0.0571349 0.254004 -0.277781 
nan nan nan
-0.0189188 0.353684 -0.196213 
nan nan nan
0.017872 0.475525 -0.168589 
0.0163949 0.485364 -0.120318 
0.0356568 0.488032 -0.119286 
0.0567342 0.666954 -0.279279 
0.0451803 0.570929 -0.0946072 
0.0458656 0.501579 -0.105381 
0.0194872 0.44553 -0.0456094 
0.0158965 0.4526 -0.0498671 
-0.00811264 0.67391 -0.0741845 
0.0155346 0.491811 -0.021803 
0.0082425 0.489437 0.0143377 
-0.005707 0.489869 0.0316178 
-0.0121481 0.433758 0.0620564 
-0.0111279 0.445428 0.0915599 
-0.0311626 0.438972 0.137831 
-0.035698 0.376416 0.140119 
-0.0789222 0.346353 0.113257 
-0.160586 0.468784 0.234589 
-0.102087 0.535703 0.181534 
-0.124484 0.598564 0.21659 
-0.164749 0.64932 0.259017 
-0.214093 0.713851 0.258989 
-0.26434 0.812372 0.457677 
-0.357589 0.89761 0.492801 
-0.347566 0.836893 0.339518 
-0.352127 0.840561 0.293594 
-0.342525 0.82501 0.231319 
-0.386827 0.838469 0.199983 
-0.551374 1.04642 0.284932 
-0.432514 0.812369 0.136836 
-0.498523 0.823485 0.110403 
-0.52299 0.816744 0.0710556 
-0.600067 0.860866 -0.0647535 
-0.383719 0.675368 0.00661461 
-0.373426 0.647759 0.00178577 
-0.378532 0.674749 -0.0424741 
-0.33948 0.441366 0.0465797 
-0.341051 0.391227 0.0344601 
-0.354746 0.354317 0.0180135 
-0.405213 0.296469 -0.118612 
-0.301917 0.218452 -0.0481801 
-0.281551 0.184934 -0.0252573 
-0.267108 0.180597 -0.0206573 
-0.241431 0.186758 -0.0161502 
-0.214639 0.173617 -0.00704166 
-0.182877 0.167459 -0.0103993 
-0.162282 0.192663 -0.0287104 
-0.104824 0.214222 -0.0176435 
-0.0904827 0.183507 0.00756536 
0.0553744 0.223949 0.0767784 
-0.0639246 0.145077 0.0574572 
-0.0648731 0.134843 0.0515416 
-0.0317684 0.148957 0.0470078 
0.0844821 0.150266 -0.0308836 
0.0695495 0.126374 -0.0185244 
-0.0170529 0.107943 -0.0434163 
-0.0679043 0.0685545 -0.0387023 
-0.0695299 0.0560729 -0.0597341 
-0.0544968 0.0423258 -0.107946 
-0.0734029 0.0223545 -0.0677923 
-0.0720518 0.0181968 -0.0562999 
-0.0749194 0.00153066 -0.0510024 
-0.0709185 -0.0167375 -0.0498801 
-0.0643732 -0.0596342 -0.0546735 
-0.0595544 -0.0656661 -0.0568305 
-0.0492563 -0.111912 -0.0531716 
-0.0323439 -0.159909 -0.0627315 
-0.0180433 -0.188702 -0.0760869 
nan nan nan
0.0498229 -0.269663 -0.136033 
0.0964809 -0.299914 -0.164583 
0.0901449 -0.258544 -0.173842 
0.163177 -0.27581 -0.214708 
0.193749 -0.230368 -0.263049 
0.219128 -0.151569 -0.294004 
0.26718 -0.153134 -0.301525 
0.331751 0.0164002 -0.365333 
0.394858 0.0848778 -0.425382 
0.422328 0.183925 -0.551667 
0.497724 0.138787 -0.426829 
0.527696 0.209971 -0.356454 
0.571619 0.27245 -0.377248 
0.729261 0.451612 -0.614321 
0.6183 0.305039 -0.434077 
0.605665 0.322044 -0.41941 
0.636178 0.342202 -0.45831 
0.697726 0.303891 -0.458781 
0.755466 0.218097 -0.540818 
0.765316 0.144744 -0.529231 
0.73101 0.0494126 -0.400961 
0.705412 0.171121 -0.279281 
0.794917 0.167575 -0.318581 
1.09146 0.276071 -0.514449 
0.894398 0.226874 -0.315872 
0.779299 0.239486 -0.243846 
1.17637 0.117151 -0.221937 
0.922358 0.257958 -0.220434 
0.808744 0.282618 -0.156245 
0.8185 0.323619 -0.142116 
0.968542 0.341958 -0.0142931 
0.749577 0.418739 -0.132345 
1.00062 0.58354 -0.238658 
0.688595 0.471703 -0.144813 
0.598121 0.472471 -0.0826119 
0.57257 0.47386 -0.0547422 
0.601108 0.528483 -0.0490178 
0.775268 0.610733 0.0866455 
0.519433 0.595467 -0.0310921 
0.475673 0.675655 -0.0317266 
0.364512 0.66075 0.00468656 
0.294648 0.750931 -0.00162588 
0.246008 0.752149 0.0326445 
0.28749 0.867585 0.0256765 
0.197423 0.801252 0.0591029 
0.246704 1.13372 0.0389296 
0.131689 0.926748 0.0749283 
0.124284 0.998108 0.105675 
0.111836 0.909026 0.119203 
0.122899 0.972719 0.158321 
0.0905348 0.950267 0.23962 
0.0480078 1.03603 0.264155 
-0.00348248 1.01357 0.216695 
0.0466105 1.31359 0.46219 
-0.0705248 1.1615 0.333117 
-0.188705 1.35105 0.327672 
-0.0839833 1.31047 0.233636 
-0.0502602 1.23234 0.192776 
0.0185746 1.4197 0.169598 
-0.0365249 1.20108 0.171453 
-0.0478342 1.19946 0.13783 
-0.0877819 1.06659 0.119504 
-0.12696 1.0118 0.107251 
-0.227668 1.14445 0.115369 
-0.146934 0.964741 0.0986385 
-0.159392 0.961911 0.0649712 
-0.191004 0.999723 0.0352381 
-0.200553 0.947449 0.0473919 
-0.218868 0.975925 -0.00815118 
-0.222614 1.02502 -0.0832687 
-0.21927 1.05325 -0.134603 
-0.254149 1.17501 -0.238415 
-0.24324 1.42791 -0.331482 
-0.187107 1.07102 -0.229952 
-0.177019 1.04808 -0.225757 
-0.129798 1.08576 -0.223248 
0.00146136 1.19842 -0.238525 
0.0455121 1.22841 -0.255151 
0.0933602 1.39925 -0.347518 
0.0995499 1.14408 -0.259889 
0.122335 1.07346 -0.295017 
0.187649 0.930344 -0.183091 
0.225414 1.05019 -0.461129 
0.245931 0.923731 -0.160249 
nan nan nan
0.497571 1.0751 -0.260853 
0.420374 0.853607 -0.192484 
0.476417 0.992114 -0.106122 
0.535465 0.990522 -0.0178533 
0.530322 0.991181 0.0446573 
0.526318 1.00761 0.170798 
0.205526 0.648029 0.164162 
0.21444 0.656943 0.226547 
0.199922 0.560064 0.13517 
0.222341 0.529126 0.131337 
0.365258 0.481543 0.24196 
0.228313 0.4424 0.0573446 
0.271006 0.417815 0.039551 
0.302082 0.45897 -0.0550223 
0.359173 0.582077 -0.278195 
0.326169 0.424317 -0.0694243 
0.342927 0.407329 -0.189179 
0.320798 0.347884 -0.0089249 
0.377089 0.289829 -0.0118545 
0.556344 0.244202 0.0880138 
0.429262 0.23136 -0.034953 
0.491995 0.165784 -0.0765463 
0.538034 0.0992713 -0.0428227 
0.563088 0.0425685 -0.0242824 
0.506258 0.0175229 -0.00592643 
0.596643 -0.0401235 -0.0182468 
0.645822 -0.0371095 -0.0053778 
0.478298 -0.117668 0.0287056 
0.435221 -0.0873958 0.0289178 
0.683615 -0.250567 0.00588726 
0.513838 -0.134291 0.0472717 
0.422675 -0.0436709 0.107443 
nan nan nan
0.365653 -0.0224854 0.269361 
0.241745 -0.0159319 0.235416 
0.235974 -0.0135549 0.276654 
0.217194 0.0128517 0.290328 
0.205791 -0.00492757 0.314044 
0.202765 -0.00557593 0.392887 
0.21209 -0.0137543 0.419187 
0.189359 -0.0380002 0.426643 
0.188929 -0.0766146 0.460179 
0.229866 -0.151007 0.509354 
0.275013 -0.128557 0.615819 
0.432857 -0.00550919 0.683341 
0.349744 -0.088999 0.610413 
0.436278 -0.144697 0.772243 
0.508011 -0.143839 0.73527 
0.516972 -0.16912 0.631135 
0.561133 -0.192899 0.616151 
0.652829 -0.2389 0.61335 
0.721471 -0.220956 0.608016 
0.767071 -0.156445 0.552274 
0.662021 -0.137326 0.446216 
0.605196 -0.10287 0.407915 
0.647812 -0.0573045 0.388533 
0.551026 -0.132942 0.399424 
0.5256 -0.149947 0.374097 
0.573515 -0.174192 0.392153 
0.713148 -0.287388 0.374466 
0.685829 -0.290607 0.394937 
0.585719 -0.271764 0.385523 
0.551484 -0.306802 0.354578 
0.529991 -0.273869 0.300744 
nan nan nan
0.561579 -0.342059 0.37349 
0.509384 -0.298727 0.393132 
nan nan nan
0.685402 -0.50014 0.496109 
nan nan nan
0.559531 -0.51531 0.550611 
0.449527 -0.421329 0.547501 
0.561217 -0.582412 0.70661 
0.389368 -0.374222 0.426891 
0.398658 -0.52829 0.348831 
nan nan nan
0.478654 -0.546098 0.212664 
0.328368 -0.340487 0.272626 
0.197867 -0.243778 0.248194 
0.16443 -0.232007 0.243361 
0.171917 -0.263186 0.244342 
0.165557 -0.309782 0.239421 
0.0106341 -0.0958945 0.217821 
-0.00226923 -0.0809595 0.218616 
0.00423408 -0.116236 0.29456 
-0.0202943 -0.0506946 0.219862 
-0.0496102 -0.00121521 0.266204 
-0.0684065 0.0584084 0.266817 
-0.0322205 0.111852 0.376179 
-0.0956192 0.104564 0.311695 
-0.113352 0.152987 0.354025 
-0.122525 0.228848 0.407887 
-0.0540639 0.22453 0.428028 
-0.0356491 0.24605 0.441265 
0.0498038 0.311349 0.504067 
0.00373061 0.294676 0.478065 
-0.0111325 0.330031 0.511326 
0.041523 0.499529 0.649469 
0.0339641 0.655053 0.996199 
0.130224 0.484088 0.785183 
0.210745 0.50221 0.783369 
0.191267 0.415576 0.842912 
0.21713 0.360328 0.824185 
0.226509 0.327448 0.888486 
nan nan nan
0.14245 0.334825 0.899112 
0.12451 0.278813 0.966845 
0.0543522 0.239333 0.85928 
0.00295292 0.301713 1.08017 
-0.0140229 0.188166 0.698963 
-0.029402 0.150999 0.653548 
-0.0871456 0.120258 0.595029 
-0.120032 0.0896367 0.538074 
-0.202975 0.129463 0.609272 
-0.271994 0.283076 0.738355 
-0.190186 0.0717507 0.555065 
-0.178845 0.0412048 0.534896 
-0.258161 0.0270226 0.602875 
-0.339848 0.0853459 0.962229 
-0.252909 0.0111397 0.693994 
-0.296083 -0.0443362 0.739671 
-0.354104 -0.145344 0.85727 
-0.174015 -0.0620756 0.735646 
-0.139328 -0.0979758 0.788941 
-0.0773278 -0.117579 0.746516 
-0.0290371 -0.221155 0.762538 
-0.0444489 -0.342425 1.05483 
-0.0601158 -0.324971 0.797016 
-0.0924365 -0.300369 0.764242 
-0.148012 -0.309802 0.758433 
-0.118711 -0.26242 0.660969 
-0.0511345 -0.292216 0.608393 
-0.0398738 -0.274124 0.542479 
-0.042607 -0.273135 0.480479 
-0.0169124 -0.316203 0.492143 
-0.00400785 -0.249259 0.465852 
0.0267012 -0.295664 0.577656 
0.140925 -0.400439 0.787113 
0.0181926 -0.427894 0.708347 
0.0341714 -0.632312 0.884591 
-0.023893 -0.4913 0.68238 
-0.122341 -0.575752 0.746381 
-0.278259 -0.664939 0.902714 
-0.171337 -0.587765 0.684167 
-0.217161 -0.645061 0.670862 
-0.237228 -0.650875 0.679988 
-0.258285 -0.697783 0.655278 
-0.299786 -0.810984 0.66311 
-0.29638 -0.775269 0.639452 
-0.389495 -1.09545 0.768659 
-0.285366 -0.856572 0.624554 
-0.227633 -0.825834 0.611084 
-0.123975 -0.911 0.670214 
nan nan nan
-0.0831472 -0.892337 0.597547 
-0.0278553 -0.884818 0.4684 
0.0406657 -0.914197 0.452401 
-0.0268337 -1.03038 0.349997 
-0.0317165 -0.90348 0.34401 
-0.0502164 -0.968224 0.289687 
-0.0273697 -0.91113 0.269073 
-0.00205067 -0.857057 0.262832 
0.0212504 -0.753809 0.205537 
0.0600572 -0.73436 0.238249 
0.0342122 -0.659283 0.10647 
0.0735248 -0.670625 0.0953387 
0.0305091 -0.646033 0.0509752 
0.035012 -0.691906 0.0105134 
0.211517 -0.889576 0.0248897 
0.0949233 -0.735038 -0.0565439 
0.0425512 -0.674685 -0.0820139 
0.0456028 -0.704499 -0.0740789 
0.0296497 -0.719817 -0.0871021 
0.0274626 -0.700073 -0.109325 
0.0473778 -0.661671 -0.126889 
0.0523885 -0.657937 -0.124796 
0.0794028 -0.571333 -0.165395 
0.0918666 -0.556445 -0.168752 
0.0948648 -0.620779 -0.168487 
0.101426 -0.511425 -0.202515 
0.0889646 -0.540082 -0.236245 
0.0688802 -0.606842 -0.265451 
0.0646524 -0.580532 -0.270326 
0.0545399 -0.643341 -0.296445 
0.183012 -0.830301 -0.350342 
0.039439 -0.759185 -0.321107 
-0.00234258 -0.790586 -0.278367 
-0.0442255 -0.814168 -0.238207 
-0.0763976 -0.930168 -0.205361 
-0.108054 -0.968258 -0.205934 
-0.115845 -0.784163 -0.166783 
-0.148948 -0.875978 -0.126344 
-0.189404 -0.736539 -0.11766 
-0.346652 -0.714575 -0.194122 
-0.227225 -0.654761 -0.109723 
-0.207896 -0.53349 -0.054072 
-0.206316 -0.47322 0.0098273 
-0.190547 -0.453908 0.0598906 
-0.203829 -0.443595 0.0884122 
-0.210612 -0.467421 0.102953 
-0.207972 -0.479873 0.168111 
-0.248566 -0.492055 0.153552 
nan nan nan
-0.280139 -0.59376 0.234104 
-0.282802 -0.56474 0.164021 
-0.300058 -0.578667 0.137084 
-0.323747 -0.615014 0.137832 
-0.359587 -0.625191 0.144873 
-0.389012 -0.70189 0.128845 
-0.652806 -0.948784 -0.150269 
-0.492865 -0.862014 0.00136509 
-0.482251 -0.928127 0.0155312 
-0.480461 -1.07018 0.0274346 
-0.452955 -1.12532 0.0677598 
-0.483219 -0.978961 0.11003 
-0.492566 -1.01701 0.123705 
-0.557189 -0.938652 0.200098 
-0.575958 -0.921878 0.236844 
-0.600072 -0.930334 0.254784 
-0.663762 -1.02593 0.268114 
-0.724389 -1.00487 0.213642 
-0.683082 -0.77253 0.159607 
-0.728458 -0.736586 0.136942 
-0.626477 -0.643237 0.144058 
-0.646954 -0.656342 0.207963 
-0.90383 -0.85646 0.379399 
-0.690366 -0.635561 0.335814 
-0.691393 -0.595071 0.354928 
-0.599628 -0.580242 0.352442 
-0.642803 -0.593456 0.435908 
nan nan nan
-0.664033 -0.543531 0.532035 
-0.67838 -0.528729 0.569238 
-0.592999 -0.471495 0.577975 
-0.552948 -0.414902 0.594439 
nan nan nan
-0.44851 -0.305151 0.433105 
-0.398806 -0.300611 0.360987 
-0.356196 -0.183694 0.24739 
-0.345883 -0.176531 0.205901 
nan nan nan
-0.332653 -0.120269 0.132785 
-0.324215 -0.0713739 0.0976276 
-0.342618 -0.061043 0.0609005 
nan nan nan
-0.298795 0.0124368 0.104847 
-0.279697 0.0460017 0.106022 
-0.308372 0.0463925 0.186106 
-0.300632 0.0365058 0.117731 
-0.319895 0.0613413 0.10011 
-0.313101 0.0686685 0.113923 
-0.321437 0.0787604 0.163542 
-0.296109 0.0654918 0.100705 
-0.29694 0.0478126 0.108841 
-0.315923 0.0336369 0.119356 
-0.324099 0.0481534 0.103318 
-0.356544 0.0691776 0.137479 
nan nan nan
-0.410988 0.0930926 0.123605 
-0.622115 0.00692771 0.177764 
-0.487458 0.11604 0.0844781 
-0.495851 0.117781 0.0805646 
-0.522838 0.118855 0.121336 
-0.648857 0.118713 0.213139 
-0.621666 0.140982 0.217823 
-0.656499 0.145337 0.231417 
-0.784862 0.205233 0.264569 
nan nan nan
-0.74191 0.241435 0.255241 
-0.71567 0.237177 0.24325 
-0.674571 0.267823 0.251907 
-0.708524 0.408791 0.324977 
-0.613654 0.415474 0.30724 
-0.568101 0.288247 0.303874 
-0.612442 0.382873 0.402434 
-0.567134 0.370512 0.374066 
-0.531861 0.301055 0.363865 
-0.498476 0.26146 0.370604 
-0.523797 0.237893 0.396706 
-0.566437 0.220134 0.443174 
-0.628757 0.168988 0.456043 
-0.643593 0.183993 0.443586 
nan nan nan
-0.957969 0.255756 0.538191 
-0.822307 0.178377 0.531511 
-0.802792 0.152823 0.520783 
-0.843557 0.151337 0.626811 
-0.94378 0.0608603 0.762057 
-0.774602 0.0821536 0.7484 
-0.717836 0.0739001 0.743216 
-0.66391 -0.0521617 0.622649 
-0.68831 -0.0375395 0.544502 
-0.827091 -0.147824 0.679643 
-0.884938 -0.180367 0.67261 
-0.810915 -0.182498 0.549431 
-0.948164 -0.267026 0.632933 
-1.0114 -0.305345 0.570938 
-1.17457 -0.296507 0.563268 
-0.830946 -0.155241 0.402605 
-1.0448 -0.169871 0.351563 
-0.877565 -0.169294 0.41453 
-0.963834 -0.231503 0.364999 
-0.929287 -0.254531 0.273462 
-0.861414 -0.269707 0.235256 
-0.834745 -0.269221 0.225633 
-0.771439 -0.316779 0.156323 
nan nan nan
-0.884259 -0.414607 0.026748 
-0.697969 -0.355033 0.0128513 
-0.658989 -0.355641 0.00816232 
-0.696848 -0.372452 0.00739076 
-0.700639 -0.333317 -0.028368 
-0.668783 -0.29216 -0.0999578 
-0.625515 -0.194959 -0.126932 
-0.626182 -0.125385 -0.127108 
-0.595003 -0.121067 -0.15125 
-0.629703 -0.065281 -0.152984 
-0.645212 -0.0317343 -0.181695 
-0.643171 -0.0238993 -0.193032 
-0.912397 -0.0315573 -0.168352 
-0.739924 0.0296776 -0.242736 
-0.854765 0.072243 -0.309337 
-1.0195 0.207135 -0.470583 
-0.742335 0.0795032 -0.354296 
-0.750337 0.0597339 -0.376378 
-0.811509 0.0356075 -0.399621 
-0.830119 0.0177594 -0.408839 
-0.788684 0.0297657 -0.394106 
-0.827361 0.0309408 -0.40718 
-1.05774 -0.177368 -0.448349 
-0.97164 -0.0207022 -0.471194 
-0.876337 0.0231698 -0.407413 
-1.2556 0.0952447 -0.39213 
