0.707139 -0.288773 -0.0207298 
0.701408 -0.307217 -0.0107981 
0.629141 -0.317661 0.00120935 
0.683385 -0.334565 -0.002676 
0.671334 -0.347872 0.000286693 
0.613697 -0.361913 0.00911817 
0.651384 -0.374273 0.00016091 
0.643421 -0.38274 -0.000153431 
0.630015 -0.390937 0.0013724 
0.631722 -0.403002 -0.00137112 
0.614432 -0.422407 -0.0217518 
0.587435 -0.483907 -0.0219708 
0.555179 -0.450119 -0.0598877 
0.552567 -0.467343 -0.0665776 
0.548079 -0.468757 -0.0722736 
0.55042 -0.504897 -0.0869146 
0.526796 -0.491466 -0.104981 
0.510913 -0.500756 -0.126388 
0.498644 -0.476973 -0.129045 
0.500029 -0.489787 -0.135745 
0.480255 -0.469359 -0.143279 
0.473264 -0.47557 -0.15775 
0.460569 -0.475216 -0.165758 
0.469577 -0.490485 -0.180286 
0.476105 -0.502255 -0.194481 
0.489452 -0.519915 -0.216666 
0.491166 -0.505645 -0.236534 
0.50753 -0.523925 -0.242195 
nan nan nan
0.541419 -0.519918 -0.256065 
0.527254 -0.481301 -0.248985 
0.52599 -0.468013 -0.247785 
0.537704 -0.477029 -0.2531 
0.539569 -0.461795 -0.251452 
0.548222 -0.43973 -0.250174 
0.55993 -0.459455 -0.257139 
0.576712 -0.477509 -0.264519 
0.572268 -0.416114 -0.252859 
0.59652 -0.44037 -0.266935 
0.579414 -0.381431 -0.248682 
0.57086 -0.392156 -0.263381 
nan nan nan
0.549035 -0.386681 -0.28764 
0.525612 -0.354178 -0.296165 
0.533771 -0.369272 -0.323691 
0.529821 -0.350194 -0.332867 
nan nan nan
0.537273 -0.335676 -0.36878 
0.535487 -0.366654 -0.4148 
0.530662 -0.297797 -0.398672 
0.536275 -0.267076 -0.417531 
0.543011 -0.246092 -0.429959 
0.511898 -0.231029 -0.449506 
0.489641 -0.221936 -0.449285 
0.496647 -0.195529 -0.460081 
0.483521 -0.181096 -0.451507 
0.471484 -0.167649 -0.443265 
0.48144 -0.132526 -0.460915 
0.439889 -0.127265 -0.441149 
0.437893 -0.116332 -0.45354 
0.425199 -0.106387 -0.455723 
0.419702 -0.0928655 -0.462819 
0.412786 -0.0783804 -0.482263 
0.416145 -0.0690988 -0.503195 
0.411793 -0.0619652 -0.512175 
0.40959 -0.0575106 -0.515121 
0.421795 -0.0518252 -0.53171 
0.405438 -0.0573241 -0.539392 
0.358225 -0.0702957 -0.518343 
0.386141 -0.0625803 -0.556611 
0.373915 -0.066463 -0.561009 
0.367909 -0.0684638 -0.561908 
0.363846 -0.0695866 -0.573254 
0.347895 -0.0750297 -0.572818 
0.341964 -0.0756758 -0.578944 
0.34097 -0.077135 -0.588469 
0.323087 -0.0835955 -0.571294 
0.315465 -0.0796895 -0.575992 
0.303168 -0.0711559 -0.587339 
0.266212 -0.0924531 -0.538518 
0.248497 -0.065795 -0.579698 
0.213398 -0.0627808 -0.577644 
0.208251 -0.0493025 -0.591032 
0.172545 -0.0488384 -0.593275 
0.148085 -0.0389948 -0.594812 
0.116474 -0.035841 -0.605469 
0.0578128 -0.0641313 -0.67763 
0.0660115 -0.0481529 -0.594624 
0.0517931 -0.0706977 -0.616131 
0.0387941 -0.0909939 -0.616447 
0.0148002 -0.0874406 -0.635257 
nan nan nan
-0.0543489 -0.075154 -0.661386 
-0.117467 -0.0886868 -0.770972 
-0.144492 -0.0781349 -0.667116 
-0.151857 -0.117944 -0.715935 
-0.145706 -0.130161 -0.687567 
-0.119128 -0.139553 -0.686775 
-0.132113 -0.14863 -0.69674 
-0.122633 -0.139013 -0.649298 
-0.125693 -0.156004 -0.676565 
-0.119542 -0.181639 -0.682906 
-0.110413 -0.217006 -0.708171 
-0.0560086 -0.249173 -0.689426 
-0.0671542 -0.284718 -0.796605 
-0.00586258 -0.280551 -0.701644 
0.0205297 -0.284335 -0.684734 
0.0366965 -0.298301 -0.704284 
0.0630522 -0.291603 -0.666933 
0.0797625 -0.311909 -0.69072 
0.129715 -0.312312 -0.637309 
0.14971 -0.313084 -0.615694 
0.177374 -0.313347 -0.579369 
0.177512 -0.349495 -0.592318 
0.161949 -0.425246 -0.66158 
0.170161 -0.449084 -0.632052 
0.193769 -0.412119 -0.551517 
0.185938 -0.436244 -0.593566 
0.175651 -0.463149 -0.63905 
nan nan nan
0.225794 -0.499996 -0.568023 
0.236069 -0.531855 -0.562889 
0.248161 -0.518123 -0.526128 
0.231754 -0.53772 -0.539085 
nan nan nan
0.215959 -0.571287 -0.539877 
0.22268 -0.562878 -0.501438 
0.188112 -0.581707 -0.487298 
nan nan nan
0.125164 -0.620189 -0.502353 
0.119471 -0.631222 -0.469079 
0.0483253 -0.683466 -0.541214 
0.0785993 -0.627385 -0.438131 
0.038497 -0.681 -0.540128 
0.0456621 -0.614254 -0.439112 
0.0102335 -0.630426 -0.441654 
nan nan nan
-0.0717985 -0.613687 -0.416901 
nan nan nan
-0.126872 -0.655272 -0.4604 
-0.145443 -0.657078 -0.45844 
-0.178186 -0.635596 -0.432027 
-0.228792 -0.721953 -0.460936 
-0.235853 -0.659892 -0.413121 
-0.256593 -0.670736 -0.403609 
-0.244228 -0.613921 -0.369381 
-0.276687 -0.630947 -0.345899 
-0.311055 -0.704901 -0.371497 
-0.29861 -0.63516 -0.317656 
-0.319918 -0.64736 -0.289697 
-0.335095 -0.667882 -0.269314 
-0.352344 -0.693513 -0.245162 
-0.353987 -0.695892 -0.235919 
-0.357963 -0.69697 -0.234794 
-0.361706 -0.703983 -0.205515 
-0.360197 -0.726973 -0.184271 
-0.36886 -0.737403 -0.154591 
-0.365787 -0.766661 -0.159155 
-0.364499 -0.769285 -0.133716 
-0.354725 -0.762325 -0.11647 
-0.346482 -0.756785 -0.0905469 
-0.368811 -0.708599 -0.0624984 
-0.362741 -0.704259 -0.0339358 
-0.322398 -0.733051 -0.0119867 
-0.322356 -0.714699 0.0149217 
-0.301577 -0.70877 0.0433925 
-0.299207 -0.69702 0.0674128 
-0.336465 -0.686502 0.106905 
-0.281599 -0.687686 0.0862 
-0.305448 -0.684549 0.0973692 
-0.314913 -0.685424 0.117152 
-0.362563 -0.70203 0.165905 
-0.3181 -0.686115 0.148967 
-0.311279 -0.683279 0.168332 
-0.328223 -0.69134 0.221521 
-0.287532 -0.674547 0.269196 
-0.322977 -0.693244 0.292762 
-0.371487 -0.726761 0.360023 
-0.502439 -0.780219 0.442078 
-0.397304 -0.71503 0.424325 
-0.443859 -0.690626 0.44519 
-0.498601 -0.676262 0.490216 
-0.530056 -0.662309 0.498426 
-0.57862 -0.643387 0.535559 
-0.608812 -0.601395 0.53916 
-0.697687 -0.534175 0.585502 
-0.717658 -0.439923 0.55778 
-0.767706 -0.30877 0.541427 
-0.85121 -0.199982 0.557918 
-0.721335 -0.203049 0.447984 
-0.684732 -0.178708 0.406314 
-0.68397 -0.150307 0.397581 
-0.757954 -0.144661 0.457813 
-0.70931 -0.120814 0.410001 
-0.621392 -0.109168 0.330734 
-0.588711 -0.0950966 0.294305 
-0.560382 -0.0806206 0.247765 
-0.563586 -0.0762375 0.254026 
-0.537942 -0.0626728 0.208558 
-0.521991 -0.0510469 0.173485 
-0.510653 -0.0404299 0.141084 
-0.501077 -0.0245554 0.0929007 
-0.496883 -0.0171608 0.0737365 
-0.497046 -0.0127614 0.00569873 
-0.450945 0.0270875 -0.0243327 
-0.409931 0.0654182 -0.0582974 
-0.375102 0.111383 -0.091862 
nan nan nan
-0.357662 0.185642 -0.171665 
-0.367631 0.152124 -0.184375 
-0.367935 0.191075 -0.23351 
-0.386089 0.150545 -0.24654 
-0.397063 0.158418 -0.272426 
-0.429402 0.151883 -0.316399 
-0.446245 0.136123 -0.329101 
-0.455569 0.120825 -0.35884 
-0.477391 0.127658 -0.393146 
-0.49463 0.107252 -0.389339 
-0.526616 0.110252 -0.400968 
-0.548965 0.096093 -0.403363 
-0.552973 0.0660231 -0.401579 
-0.54684 -0.0378428 -0.368597 
-0.591924 0.0333868 -0.411058 
-0.606003 0.0282981 -0.422922 
-0.628105 0.00998751 -0.403934 
-0.656301 0.0206761 -0.409093 
-0.65932 0.0163056 -0.396118 
-0.677114 0.0147325 -0.392832 
-0.677657 0.0168907 -0.394537 
-0.685218 0.0286523 -0.41799 
-0.697533 0.0215156 -0.410923 
-0.70676 0.00695801 -0.369712 
-0.715274 0.0120627 -0.400301 
-0.725463 0.0130281 -0.415717 
-0.714636 0.0040279 -0.365226 
-0.73571 0.00247212 -0.397151 
-0.756547 -0.00558543 -0.40114 
-0.756603 -0.0243414 -0.374198 
-0.747184 -0.04358 -0.299396 
-0.776084 -0.0717958 -0.368983 
-0.760857 -0.0867269 -0.280354 
-0.785434 -0.125944 -0.340999 
-0.789368 -0.142069 -0.340757 
-0.789284 -0.167632 -0.339984 
-0.786345 -0.181424 -0.319692 
-0.78138 -0.191164 -0.24209 
-0.77843 -0.256588 -0.31154 
-0.789433 -0.294035 -0.281189 
-0.780553 -0.331655 -0.290885 
-0.79093 -0.359871 -0.270401 
-0.781225 -0.396191 -0.27753 
-0.79642 -0.396399 -0.226272 
-0.764501 -0.420174 -0.231345 
-0.793893 -0.419742 -0.143026 
-0.738262 -0.47125 -0.175349 
-0.744687 -0.485401 -0.129486 
-0.717696 -0.511977 -0.141621 
-0.715806 -0.52306 -0.110658 
-0.711538 -0.536563 -0.104359 
-0.719783 -0.550335 -0.0859322 
-0.700667 -0.562571 -0.10986 
-0.729704 -0.548313 -0.0701365 
-0.721173 -0.555679 -0.084653 
-0.743993 -0.550768 -0.0604646 
-0.743622 -0.567698 -0.0851039 
-0.741103 -0.578084 -0.100904 
-0.771968 -0.558605 -0.0533159 
-0.767209 -0.580404 -0.0940697 
-0.785115 -0.584033 -0.0936745 
-0.793507 -0.59235 -0.105327 
-0.821096 -0.594335 -0.105247 
-0.840728 -0.584114 -0.0884091 
-0.831687 -0.588514 -0.12215 
-0.854091 -0.583936 -0.106973 
-0.872041 -0.577606 -0.0932983 
-0.871745 -0.591536 -0.12635 
-0.886496 -0.585352 -0.132101 
-0.888888 -0.579361 -0.148668 
-0.895069 -0.57007 -0.17054 
-0.91486 -0.556535 -0.162933 
-0.93732 -0.546719 -0.149347 
-0.911232 -0.552273 -0.189896 
-0.910615 -0.549589 -0.203425 
-0.91063 -0.544117 -0.215205 
-0.922855 -0.532786 -0.220294 
-0.921508 -0.524517 -0.241957 
-0.966353 -0.50522 -0.225014 
-0.927031 -0.509508 -0.271538 
-0.947836 -0.492058 -0.28047 
-0.936007 -0.491928 -0.309692 
-0.97544 -0.463946 -0.277247 
-0.935787 -0.456617 -0.308829 
nan nan nan
-1.02834 -0.416685 -0.247991 
-1.01727 -0.386601 -0.235369 
-1.02788 -0.376676 -0.219824 
-1.04816 -0.358829 -0.170428 
-1.04739 -0.356207 -0.151943 
-1.10363 -0.339684 -0.0830944 
-1.03766 -0.344232 -0.105789 
-1.05054 -0.341627 -0.0911703 
-1.02641 -0.329348 -0.0765507 
-1.05033 -0.299163 -0.077114 
-1.14459 -0.254546 -0.0675803 
-1.01432 -0.258754 -0.0960176 
-1.04731 -0.222158 -0.113297 
-1.02684 -0.189797 -0.131372 
-1.1395 -0.142108 -0.0935991 
-1.04398 -0.116728 -0.11937 
-1.11033 -0.0585889 -0.0694456 
-1.0061 -0.0712755 -0.125404 
-1.00447 -0.0373262 -0.12215 
-1.07565 -0.00980067 -0.0852666 
-0.974063 0.00507891 -0.139438 
-0.972148 0.0274299 -0.131957 
-0.930819 0.0704785 -0.160642 
-0.914274 0.0918625 -0.167523 
-0.896967 0.11569 -0.191801 
-0.897744 0.121932 -0.163042 
-0.894353 0.127394 -0.160524 
-0.873413 0.163203 -0.159367 
-0.868367 0.19358 -0.162104 
-0.89984 0.159235 -0.0747057 
-0.881095 0.245805 -0.0776066 
-0.86755 0.304893 -0.0466406 
nan nan nan
-0.875538 0.337049 0.0718721 
-0.816473 0.418283 0.0758078 
-0.787105 0.47071 0.144201 
-0.763115 0.499727 0.178422 
-0.741454 0.521233 0.216993 
-0.710593 0.545287 0.277896 
-0.689093 0.551958 0.308993 
-0.694396 0.546541 0.328904 
-0.667104 0.567384 0.336373 
-0.634704 0.574044 0.359218 
-0.580231 0.540882 0.374377 
-0.596675 0.539425 0.394194 
-0.573895 0.499161 0.361253 
-0.592886 0.534173 0.394646 
-0.591285 0.536572 0.401223 
-0.5829 0.546776 0.411019 
-0.576603 0.553062 0.433118 
-0.570469 0.57174 0.437363 
-0.583584 0.602987 0.464833 
-0.583492 0.62181 0.477486 
-0.55913 0.62704 0.470607 
-0.540045 0.653006 0.477543 
-0.531164 0.696567 0.494897 
-0.515525 0.692449 0.487326 
-0.497875 0.691867 0.480695 
-0.491268 0.70898 0.48666 
-0.486222 0.744099 0.502093 
-0.470258 0.736034 0.494463 
-0.452106 0.71387 0.477842 
-0.426313 0.717548 0.484216 
-0.422869 0.711504 0.481356 
nan nan nan
-0.417601 0.693397 0.47224 
-0.410261 0.671317 0.459001 
nan nan nan
-0.409285 0.698279 0.480647 
nan nan nan
-0.381456 0.683498 0.488496 
-0.364969 0.658775 0.477377 
-0.361763 0.719201 0.522063 
-0.320715 0.647946 0.493033 
-0.310018 0.674707 0.522403 
nan nan nan
-0.285327 0.711589 0.583626 
-0.251842 0.663241 0.572601 
-0.225692 0.617829 0.534604 
-0.240076 0.620136 0.581519 
-0.273632 0.648742 0.640028 
-0.354392 0.691901 0.762053 
-0.312412 0.602908 0.704502 
-0.29276 0.560099 0.708716 
-0.371253 0.6641 0.814279 
-0.334018 0.536897 0.772017 
-0.340409 0.472828 0.792951 
-0.352028 0.381034 0.813397 
-0.437976 0.368411 0.909389 
-0.291811 0.272401 0.842799 
-0.272157 0.220793 0.888812 
-0.253504 0.184441 0.889749 
-0.216571 0.120283 0.878127 
-0.199343 0.0889274 0.873371 
-0.195591 0.087245 0.866415 
-0.167891 0.0427196 0.871741 
-0.152943 0.025532 0.869657 
-0.14761 0.0208612 0.863365 
-0.156499 0.0346177 0.847261 
-0.11321 -0.0215424 0.867296 
-0.115672 -0.00777415 0.854903 
-0.100072 -0.012451 0.848734 
-0.0807199 -0.019811 0.844362 
-0.0750493 -0.0157447 0.835863 
nan nan nan
-0.0386088 -0.0299885 0.834516 
-0.0361952 -0.018923 0.816136 
-0.00834137 -0.0253457 0.815687 
-0.0387733 0.00320977 0.763596 
0.0300038 -0.0259003 0.803599 
0.0561642 -0.00731502 0.786523 
0.0704919 0.00729306 0.773663 
0.107186 0.0345622 0.770305 
0.0767821 0.046418 0.729367 
0.0335465 0.0603218 0.675441 
0.113558 0.0762117 0.741073 
0.120474 0.0986312 0.737894 
0.12601 0.117173 0.71379 
0.0890314 0.13101 0.625389 
0.177027 0.160405 0.710475 
0.134122 0.170494 0.640649 
0.0927253 0.171785 0.562429 
0.189877 0.229976 0.622162 
0.20953 0.251541 0.587133 
0.239315 0.273434 0.605212 
0.280174 0.291865 0.61392 
0.227467 0.291222 0.556771 
0.268897 0.339396 0.592423 
0.249707 0.344935 0.582225 
0.202575 0.351478 0.552702 
0.187836 0.367514 0.562351 
0.165478 0.389789 0.552777 
0.173376 0.43307 0.545484 
0.161214 0.462219 0.522491 
0.123633 0.450282 0.490276 
0.150652 0.475629 0.515423 
0.137956 0.49548 0.515022 
0.0915801 0.460074 0.403956 
0.212738 0.488572 0.485065 
0.144805 0.488353 0.360163 
0.269635 0.50094 0.429387 
0.299228 0.50777 0.418963 
0.258118 0.562251 0.347512 
0.357599 0.511312 0.404858 
0.366234 0.513941 0.380104 
0.38566 0.504303 0.368497 
0.399771 0.497339 0.352896 
0.411202 0.492774 0.337181 
0.429407 0.483844 0.336568 
0.397522 0.508555 0.323049 
0.407971 0.495218 0.327259 
0.408699 0.495945 0.318692 
0.410114 0.497918 0.302242 
nan nan nan
0.441949 0.494942 0.285915 
0.464905 0.503716 0.271107 
0.467064 0.503767 0.249405 
0.479063 0.504401 0.239016 
0.499615 0.510141 0.233064 
0.478042 0.503719 0.216323 
0.470306 0.506163 0.206071 
0.463352 0.509433 0.196817 
0.458067 0.516138 0.175148 
0.43232 0.514881 0.140422 
0.422452 0.50434 0.115788 
0.404391 0.519988 0.0721509 
0.394565 0.502114 0.0641162 
0.36396 0.476385 0.041942 
0.364528 0.533704 -0.0592288 
0.291445 0.45453 -0.0953981 
0.247869 0.403192 -0.106293 
0.231528 0.39983 -0.157561 
0.213839 0.383611 -0.173527 
0.205506 0.349425 -0.183649 
0.179064 0.359977 -0.202203 
0.204273 0.409995 -0.237503 
0.207054 0.40273 -0.266804 
0.241786 0.412774 -0.317921 
0.257646 0.421155 -0.331401 
0.265531 0.383736 -0.322341 
0.296752 0.371842 -0.335416 
0.306385 0.351744 -0.333254 
0.310822 0.325353 -0.326141 
0.322018 0.32234 -0.310642 
0.377782 0.385566 -0.353275 
0.347472 0.277859 -0.287547 
0.366523 0.239237 -0.300267 
0.398559 0.225444 -0.292599 
0.438356 0.233651 -0.307721 
0.438248 0.219519 -0.296274 
0.411068 0.174269 -0.268539 
0.450434 0.218159 -0.274195 
0.452135 0.204103 -0.225378 
0.521103 0.301229 -0.232659 
0.502239 0.240351 -0.145739 
0.534673 0.290205 -0.173704 
0.55236 0.286027 -0.118354 
0.598462 0.325166 -0.109391 
0.591209 0.302782 -0.0635795 
0.601619 0.305658 -0.0483688 
0.642778 0.332796 -0.031612 
0.630083 0.307366 0.03773 
nan nan nan
0.665115 0.283693 0.0807793 
0.64434 0.298321 0.109048 
0.643099 0.306067 0.128476 
0.649256 0.295769 0.127555 
0.65091 0.29289 0.139007 
0.657948 0.293832 0.161932 
0.693178 0.270292 0.157041 
0.675209 0.302761 0.201567 
0.685644 0.313093 0.22168 
0.68593 0.309267 0.221368 
0.688116 0.314818 0.232004 
0.697848 0.337073 0.251475 
0.694869 0.316591 0.25325 
0.695916 0.31238 0.255925 
0.700651 0.313553 0.267429 
0.701146 0.295739 0.262593 
0.704836 0.283224 0.265491 
0.713745 0.270087 0.276164 
0.724036 0.268114 0.297667 
0.72586 0.231025 0.291663 
0.728533 0.237757 0.304202 
0.732899 0.242987 0.322892 
0.736936 0.195771 0.292629 
0.721921 0.205091 0.346769 
0.732856 0.172068 0.355909 
0.70299 0.178824 0.369994 
0.69588 0.18268 0.387336 
nan nan nan
0.659693 0.1686 0.423532 
0.664332 0.149722 0.436481 
0.668038 0.146441 0.430253 
0.693911 0.114089 0.4366 
nan nan nan
0.740918 0.095653 0.454641 
0.777095 0.0718316 0.467256 
0.821869 0.0115329 0.513686 
0.838294 -0.0385861 0.546243 
nan nan nan
0.861962 -0.104925 0.583653 
0.885043 -0.17284 0.628958 
0.918016 -0.247573 0.713284 
nan nan nan
0.890087 -0.335999 0.750981 
0.855091 -0.392867 0.800167 
0.90682 -0.52292 0.927473 
0.826849 -0.50599 0.879536 
0.740338 -0.511154 0.866926 
0.70581 -0.523406 0.808724 
0.781406 -0.578057 0.817507 
0.737685 -0.54957 0.727037 
0.756628 -0.58439 0.675338 
0.738061 -0.581862 0.631215 
0.685998 -0.521115 0.582888 
0.692209 -0.527832 0.57971 
nan nan nan
0.593643 -0.414684 0.493174 
0.63443 -0.465977 0.537437 
0.55066 -0.364838 0.438805 
0.544301 -0.356335 0.430618 
0.503688 -0.313488 0.380885 
0.514062 -0.293026 0.427309 
0.489996 -0.253139 0.411997 
0.497116 -0.249426 0.404013 
0.511139 -0.253573 0.439488 
nan nan nan
0.479996 -0.207724 0.445393 
0.459998 -0.173954 0.448763 
0.45186 -0.16586 0.46708 
0.437795 -0.187463 0.50575 
0.422102 -0.188525 0.534884 
0.40224 -0.145717 0.528256 
0.393238 -0.128241 0.537381 
0.390513 -0.131296 0.549478 
0.37625 -0.109537 0.541725 
0.376326 -0.08466 0.541041 
0.36658 -0.0575524 0.534809 
0.379104 -0.0430256 0.538985 
0.377745 -0.018486 0.520862 
0.379229 -0.0159068 0.544685 
nan nan nan
0.410133 -0.0388172 0.600158 
0.396002 -0.00231833 0.580743 
0.395784 0.0242557 0.572538 
0.405466 0.00642065 0.580382 
0.436758 -0.000789819 0.556344 
0.457156 0.0080777 0.524395 
0.473322 0.0150548 0.474719 
0.446158 0.0425058 0.431303 
0.428433 0.0607367 0.412495 
0.442479 0.0423153 0.412104 
0.445813 0.0359589 0.404796 
0.445328 0.040072 0.386519 
0.457628 0.0282506 0.388669 
0.460039 0.0276908 0.382915 
0.483377 0.00727978 0.388032 
0.461398 0.0355103 0.359617 
0.477577 0.0187738 0.371148 
0.476663 0.0295474 0.355369 
0.488357 0.0188286 0.357342 
0.492783 0.0246016 0.340625 
0.494668 0.0333848 0.322969 
0.510015 0.0134336 0.32521 
0.513425 0.0126486 0.304015 
nan nan nan
0.543445 -0.0187163 0.295568 
0.553427 -0.0219003 0.275026 
0.557009 -0.0154844 0.253636 
0.576094 -0.0343658 0.251172 
0.581088 -0.0389258 0.234908 
0.604994 -0.0552995 0.220307 
0.639038 -0.0753929 0.200067 
0.666181 -0.103291 0.185085 
0.676351 -0.110559 0.172513 
0.697484 -0.141482 0.13988 
0.699222 -0.173373 0.110416 
0.672798 -0.193401 0.101842 
0.605026 -0.219499 0.0561652 
0.70825 -0.22636 0.0396528 
0.682244 -0.239912 0.012213 
0.548385 -0.241865 -0.0186217 
0.655452 -0.252502 -0.0295137 
0.654499 -0.271695 -0.052599 
0.630258 -0.273871 -0.0652234 
0.635715 -0.272277 -0.0682001 
0.666892 -0.274218 -0.0695873 
0.661538 -0.273977 -0.0635002 
0.619832 -0.275321 -0.0534575 
0.674642 -0.280861 -0.0437212 
0.710842 -0.283279 -0.0433011 
0.6471 -0.286295 -0.0357639 
