-0.561568 0.127318 -0.490731 
-0.549458 0.139037 -0.498065 
-0.484279 0.138934 -0.472626 
-0.524297 0.149057 -0.508112 
-0.507275 0.154468 -0.514884 
-0.456126 0.159048 -0.494171 
-0.478752 0.161561 -0.526653 
-0.468808 0.163413 -0.529026 
-0.456451 0.165799 -0.526796 
-0.453033 0.165154 -0.539747 
-0.429123 0.155812 -0.55723 
-0.359343 0.175584 -0.531032 
-0.37547 0.127369 -0.584436 
-0.356673 0.128754 -0.579167 
-0.352062 0.124498 -0.581969 
-0.330063 0.128756 -0.594178 
-0.320904 0.101166 -0.595441 
-0.301284 0.080601 -0.604395 
-0.299786 0.0734683 -0.586083 
-0.294956 0.0693733 -0.595722 
-0.284639 0.0557394 -0.574629 
-0.274668 0.0444284 -0.582927 
-0.265006 0.0345707 -0.578886 
-0.267168 0.0258093 -0.597076 
-0.269525 0.0152252 -0.610252 
-0.272515 -0.00215628 -0.635202 
-0.277395 -0.0236176 -0.626598 
-0.277508 -0.026772 -0.655545 
nan nan nan
-0.301917 -0.0395878 -0.670266 
-0.308552 -0.0437214 -0.631698 
-0.312775 -0.0455715 -0.621415 
-0.316824 -0.047404 -0.633821 
-0.325 -0.0507735 -0.623364 
-0.340622 -0.0553235 -0.611449 
-0.339059 -0.0554517 -0.63376 
-0.34497 -0.0568968 -0.656273 
-0.369814 -0.0635058 -0.604871 
-0.370515 -0.0659826 -0.634084 
-0.385788 -0.0696976 -0.578404 
-0.373611 -0.0785728 -0.586145 
nan nan nan
-0.356483 -0.100599 -0.581146 
-0.361535 -0.115148 -0.552303 
-0.351479 -0.135191 -0.568936 
-0.359497 -0.15185 -0.557197 
nan nan nan
-0.356342 -0.183439 -0.552888 
-0.304364 -0.200107 -0.557322 
-0.36127 -0.225139 -0.536998 
-0.365311 -0.253725 -0.528862 
-0.373101 -0.274858 -0.523779 
-0.364693 -0.289563 -0.497161 
-0.349965 -0.291147 -0.473885 
-0.367577 -0.313148 -0.467801 
-0.36068 -0.313331 -0.447156 
-0.355935 -0.315283 -0.430464 
-0.375033 -0.347195 -0.421711 
-0.350013 -0.340714 -0.392681 
-0.352942 -0.356683 -0.390008 
-0.346968 -0.364262 -0.378859 
-0.348611 -0.377202 -0.371348 
-0.342937 -0.40075 -0.363397 
-0.343123 -0.421134 -0.364273 
-0.338201 -0.432142 -0.359004 
-0.337228 -0.436113 -0.356108 
-0.346304 -0.44949 -0.364112 
-0.331185 -0.455025 -0.36443 
-0.290792 -0.437471 -0.343711 
-0.311367 -0.468101 -0.365908 
-0.300298 -0.471635 -0.365085 
-0.29468 -0.47229 -0.364174 
-0.289961 -0.480931 -0.367238 
-0.276127 -0.479823 -0.364166 
-0.270505 -0.485416 -0.364246 
-0.268925 -0.492701 -0.368332 
-0.2538 -0.478344 -0.359214 
-0.248649 -0.484636 -0.354851 
-0.241709 -0.498666 -0.348044 
-0.205561 -0.452653 -0.334897 
-0.199585 -0.499213 -0.319508 
-0.169251 -0.501469 -0.302867 
-0.170699 -0.519015 -0.295221 
-0.141715 -0.520775 -0.283127 
-0.124386 -0.529851 -0.265709 
-0.0967363 -0.541275 -0.25347 
-0.0281208 -0.60049 -0.270617 
-0.0532186 -0.533024 -0.2392 
-0.0341855 -0.548406 -0.258012 
-0.0136463 -0.54102 -0.26966 
0.00824418 -0.557715 -0.261312 
nan nan nan
0.0666644 -0.584871 -0.234444 
0.142265 -0.673841 -0.247354 
0.146579 -0.584786 -0.206907 
0.175928 -0.621105 -0.246697 
0.175735 -0.594072 -0.251302 
0.15902 -0.584245 -0.259077 
0.172424 -0.589152 -0.262097 
0.156399 -0.551869 -0.246176 
0.1714 -0.571868 -0.265223 
0.185089 -0.567892 -0.289174 
0.191455 -0.583089 -0.329566 
0.172279 -0.566423 -0.381862 
0.203128 -0.653211 -0.43196 
0.132346 -0.562437 -0.426563 
0.110014 -0.546881 -0.435287 
0.102417 -0.557249 -0.458022 
0.0746356 -0.527957 -0.458005 
0.0712873 -0.542153 -0.48602 
0.0209368 -0.489989 -0.491823 
-0.000194079 -0.4703 -0.496615 
-0.0287637 -0.440496 -0.50159 
-0.0124382 -0.437825 -0.528503 
0.0367131 -0.475449 -0.605813 
0.0308628 -0.440452 -0.620665 
-0.00925143 -0.382932 -0.578009 
0.00934673 -0.412615 -0.605947 
0.0318245 -0.443779 -0.63587 
nan nan nan
-0.00899583 -0.359838 -0.665069 
-0.00651139 -0.344181 -0.695101 
-0.0237064 -0.31871 -0.677524 
-0.00278632 -0.322945 -0.689947 
nan nan nan
0.0293594 -0.322798 -0.711069 
0.0186849 -0.289709 -0.69295 
0.0517055 -0.27453 -0.69616 
nan nan nan
0.118749 -0.276332 -0.718966 
0.117745 -0.238095 -0.712339 
0.197411 -0.284476 -0.76846 
0.157489 -0.217949 -0.691714 
0.205355 -0.285164 -0.763529 
0.183472 -0.224873 -0.673987 
0.220299 -0.222909 -0.67983 
nan nan nan
0.294619 -0.214021 -0.643228 
nan nan nan
0.353146 -0.245874 -0.675596 
0.368901 -0.249591 -0.674451 
0.39403 -0.25167 -0.635933 
0.469688 -0.260579 -0.698369 
0.459119 -0.256225 -0.629049 
0.478381 -0.252431 -0.624082 
0.451907 -0.251766 -0.571959 
0.488194 -0.240051 -0.560796 
0.541559 -0.233712 -0.616103 
0.51328 -0.228418 -0.543385 
0.5454 -0.21345 -0.52761 
0.572336 -0.199868 -0.52173 
0.604713 -0.184494 -0.512533 
0.60268 -0.170463 -0.516782 
0.601411 -0.165287 -0.510119 
0.609584 -0.138517 -0.493633 
0.633329 -0.120218 -0.514481 
0.646922 -0.0922049 -0.504098 
0.665958 -0.0969396 -0.535692 
0.667581 -0.0726232 -0.53451 
0.662138 -0.055501 -0.530424 
0.655569 -0.0314672 -0.52691 
0.628103 -0.00863636 -0.479803 
0.625286 0.01776 -0.473544 
0.631233 0.0461845 -0.515343 
0.616295 0.0715878 -0.50421 
0.603808 0.0997117 -0.512669 
0.590673 0.11885 -0.505909 
0.588551 0.154945 -0.479914 
0.568576 0.134133 -0.507972 
0.577219 0.142951 -0.494875 
0.572853 0.159549 -0.490498 
0.599266 0.213604 -0.475623 
0.562375 0.187489 -0.487854 
0.549447 0.203642 -0.487558 
0.552732 0.256283 -0.481453 
0.513794 0.293307 -0.479827 
0.543662 0.327421 -0.478251 
0.577888 0.403322 -0.477745 
0.694501 0.519215 -0.483501 
0.602147 0.470272 -0.456986 
0.650347 0.492155 -0.429457 
0.69024 0.535703 -0.396113 
0.716872 0.543046 -0.373522 
0.752905 0.580772 -0.337961 
0.769971 0.585299 -0.292099 
0.822607 0.636853 -0.206797 
0.825252 0.609372 -0.102604 
0.859507 0.582041 0.0400776 
0.928899 0.59302 0.179166 
0.805969 0.483049 0.125063 
0.76555 0.441331 0.13537 
0.755689 0.425522 0.162062 
0.826494 0.484926 0.204307 
0.77381 0.429436 0.213303 
0.687032 0.354142 0.179047 
0.658466 0.32348 0.173923 
0.61999 0.284433 0.165755 
0.621144 0.288454 0.175401 
0.588329 0.252447 0.164794 
0.559812 0.21432 0.158623 
0.546509 0.191877 0.154256 
0.52922 0.147702 0.14925 
0.522593 0.132387 0.149482 
0.509944 0.0669943 0.148488 
0.452716 0.0440334 0.142354 
0.397542 0.0187641 0.135602 
0.347384 -0.0131651 0.133898 
nan nan nan
0.285693 -0.107232 0.165992 
0.310684 -0.113806 0.157132 
0.286314 -0.167548 0.172588 
0.319603 -0.178183 0.153461 
0.323407 -0.2057 0.149853 
0.352148 -0.245916 0.134614 
0.372307 -0.257881 0.133585 
0.382417 -0.287626 0.137428 
0.391734 -0.321559 0.122945 
0.411146 -0.321853 0.13647 
0.433694 -0.338929 0.126705 
0.456886 -0.348416 0.137777 
0.469399 -0.353905 0.157829 
0.494008 -0.351293 0.254029 
0.51107 -0.373576 0.168044 
0.526211 -0.38514 0.162145 
0.553872 -0.375377 0.177425 
0.573075 -0.386345 0.163037 
0.58271 -0.375267 0.171652 
0.597897 -0.377171 0.170225 
0.598565 -0.377896 0.168046 
0.595389 -0.398618 0.150325 
0.608769 -0.396055 0.154788 
0.630059 -0.363714 0.17842 
0.629578 -0.390127 0.161379 
0.633593 -0.404009 0.153187 
0.637568 -0.362627 0.178913 
0.64914 -0.391081 0.160681 
0.666877 -0.396896 0.155627 
0.677297 -0.367974 0.157054 
0.691653 -0.300468 0.169832 
0.709135 -0.352082 0.121721 
0.722328 -0.269002 0.141203 
0.743939 -0.316216 0.0906877 
0.750143 -0.316925 0.0777805 
0.759056 -0.310639 0.0544369 
0.764034 -0.290577 0.047995 
0.784042 -0.218504 0.0595449 
0.78892 -0.27184 -0.0165935 
0.823092 -0.250122 -0.0348021 
0.826879 -0.255834 -0.0771845 
0.855017 -0.239553 -0.0883491 
0.860733 -0.24642 -0.122753 
0.88441 -0.200807 -0.107135 
0.873498 -0.195648 -0.145455 
0.91823 -0.123873 -0.114652 
0.888614 -0.136342 -0.184711 
0.912973 -0.0974253 -0.184825 
0.900682 -0.102875 -0.218465 
0.912481 -0.0758238 -0.225562 
0.918962 -0.0712295 -0.238936 
0.938493 -0.0565272 -0.244159 
0.923492 -0.074207 -0.265012 
0.948838 -0.0456005 -0.234315 
0.941237 -0.0578379 -0.246326 
0.965217 -0.0431065 -0.22551 
0.962919 -0.067104 -0.242506 
0.960687 -0.0809103 -0.253118 
0.991033 -0.0486591 -0.216663 
0.982113 -0.0824493 -0.242765 
0.999304 -0.0880919 -0.238265 
1.00722 -0.101631 -0.244434 
1.02835 -0.10785 -0.236511 
1.04891 -0.100137 -0.220264 
1.0322 -0.127713 -0.231795 
1.05183 -0.122865 -0.219078 
1.06732 -0.115842 -0.206058 
1.06097 -0.145668 -0.221757 
1.06736 -0.155813 -0.212276 
1.06347 -0.169567 -0.207023 
1.05912 -0.189871 -0.196302 
1.07137 -0.185017 -0.177711 
1.09009 -0.186098 -0.150388 
1.05954 -0.208879 -0.176425 
1.05559 -0.219523 -0.174587 
1.04984 -0.230686 -0.170956 
1.05299 -0.237633 -0.155871 
1.04308 -0.255056 -0.152816 
1.07203 -0.246193 -0.115548 
1.03429 -0.284737 -0.138813 
1.04134 -0.293831 -0.117785 
1.02577 -0.320086 -0.123573 
1.05247 -0.295311 -0.079016 
1.00932 -0.320005 -0.0930333 
nan nan nan
1.08296 -0.280328 -0.016285 
1.063 -0.270878 0.00580373 
1.07276 -0.25809 0.0246627 
1.09787 -0.222696 0.067674 
1.0973 -0.205059 0.0704304 
1.1477 -0.142129 0.108704 
1.09575 -0.159429 0.0768512 
1.10617 -0.146302 0.0851187 
1.08864 -0.127021 0.084392 
1.09674 -0.126514 0.121485 
1.15674 -0.10904 0.207891 
1.04966 -0.146312 0.14962 
1.05477 -0.149173 0.193111 
1.01342 -0.166007 0.218691 
1.08442 -0.105807 0.30196 
1.00113 -0.157484 0.288904 
1.0314 -0.118558 0.365097 
0.956485 -0.181752 0.310928 
0.944135 -0.182274 0.337602 
0.989535 -0.148409 0.395001 
0.896531 -0.202709 0.353209 
0.881084 -0.196064 0.36928 
0.826003 -0.219347 0.377907 
0.801204 -0.223101 0.388926 
0.775569 -0.242413 0.39372 
0.773926 -0.219338 0.404528 
0.769012 -0.21716 0.408682 
0.733868 -0.218882 0.42564 
0.719103 -0.224403 0.446515 
0.762293 -0.147904 0.444403 
0.706896 -0.16585 0.51825 
0.682051 -0.142637 0.564294 
nan nan nan
0.673119 -0.0531172 0.625701 
0.602974 -0.0545738 0.67298 
0.558118 0.00565631 0.714234 
0.525408 0.0351987 0.734381 
0.483996 0.0502332 0.744049 
0.418152 0.0797425 0.745967 
0.384999 0.0932409 0.744225 
0.367179 0.0901342 0.743901 
0.363465 0.123169 0.752467 
0.334502 0.155203 0.751528 
0.28375 0.172451 0.733831 
0.283803 0.200819 0.731391 
0.262476 0.161273 0.701779 
0.280286 0.199728 0.727763 
0.279527 0.206533 0.729887 
0.279127 0.220324 0.739061 
0.275561 0.240639 0.746609 
0.27159 0.247804 0.763965 
0.286362 0.273827 0.790483 
0.285382 0.284809 0.807382 
0.264176 0.280591 0.815036 
0.249782 0.291679 0.843064 
0.246571 0.309088 0.881309 
0.231379 0.303136 0.879459 
0.215693 0.298737 0.8813 
0.211054 0.305662 0.897955 
0.2095 0.320206 0.928804 
0.195697 0.314616 0.924308 
0.171721 0.305286 0.915786 
0.147974 0.311762 0.919456 
0.143587 0.308269 0.916468 
nan nan nan
0.137217 0.299189 0.901269 
0.129515 0.287125 0.883471 
nan nan nan
0.129071 0.307445 0.905564 
nan nan nan
0.103857 0.317225 0.893716 
0.0853119 0.310039 0.870133 
0.0863908 0.352744 0.922973 
0.0484218 0.330998 0.853607 
0.0401268 0.357807 0.876412 
nan nan nan
0.0130651 0.414566 0.911176 
-0.0105169 0.4106 0.851417 
-0.0282751 0.380187 0.803728 
-0.00910533 0.426397 0.808426 
0.0175783 0.473286 0.842944 
0.0895524 0.585412 0.929244 
0.064275 0.544915 0.818608 
0.0599675 0.558759 0.771885 
0.111923 0.636507 0.910072 
0.102318 0.62182 0.769232 
0.131538 0.656073 0.716667 
0.180825 0.691556 0.64332 
0.258626 0.77371 0.676377 
0.183999 0.727385 0.526366 
0.171833 0.766656 0.473036 
0.158974 0.770144 0.433974 
0.135368 0.769202 0.364943 
0.12483 0.769362 0.331113 
0.121903 0.761821 0.328227 
0.105955 0.771978 0.282701 
0.0959971 0.770644 0.262543 
0.092377 0.764384 0.257066 
0.0980772 0.745559 0.271816 
0.0714818 0.767982 0.212622 
0.0709255 0.756126 0.225051 
0.0579682 0.749618 0.216401 
0.0425743 0.744496 0.204576 
0.0362186 0.735572 0.207438 
nan nan nan
0.00968787 0.732061 0.185786 
0.00329073 0.716796 0.196558 
-0.0196771 0.715606 0.182009 
-0.00768885 0.671649 0.228812 
-0.0516904 0.703357 0.172907 
-0.0824021 0.694482 0.182008 
-0.100605 0.686959 0.192286 
-0.141324 0.688901 0.198387 
-0.126779 0.659258 0.23528 
-0.106446 0.634648 0.293636 
-0.165118 0.667633 0.232892 
-0.182129 0.663295 0.243499 
-0.201753 0.656346 0.260984 
-0.204635 0.664914 0.348659 
-0.262642 0.640815 0.265725 
-0.251703 0.639285 0.32951 
-0.239561 0.647605 0.413998 
-0.310865 0.580807 0.342658 
-0.333861 0.554873 0.368163 
-0.356749 0.53248 0.348454 
-0.386943 0.514756 0.335813 
-0.35628 0.512149 0.393074 
-0.38066 0.473808 0.359088 
-0.364141 0.46748 0.370793 
-0.331372 0.459556 0.417287 
-0.316324 0.448625 0.417866 
-0.299461 0.427379 0.427261 
-0.297148 0.382161 0.411202 
-0.291363 0.348014 0.41983 
-0.271772 0.346578 0.459184 
-0.283764 0.331119 0.42258 
-0.270145 0.312745 0.425011 
-0.264777 0.29613 0.528064 
-0.344156 0.304062 0.426288 
-0.33932 0.271114 0.565063 
-0.41437 0.277121 0.455975 
-0.446348 0.271192 0.454017 
-0.43647 0.207008 0.524071 
-0.499253 0.257748 0.439784 
-0.507435 0.233678 0.435472 
-0.52207 0.224431 0.420429 
-0.532965 0.210901 0.409888 
-0.542733 0.196243 0.402954 
-0.553708 0.199417 0.387169 
-0.537711 0.177911 0.424073 
-0.543057 0.18579 0.410014 
-0.543425 0.17826 0.410751 
-0.546624 0.162178 0.410823 
nan nan nan
-0.563733 0.154574 0.374691 
-0.578388 0.145148 0.357014 
-0.584946 0.128431 0.354534 
-0.59495 0.120826 0.346739 
-0.612322 0.115305 0.339758 
-0.596415 0.101776 0.344087 
-0.592972 0.0910179 0.349259 
-0.588852 0.0794494 0.350747 
-0.58475 0.0553193 0.343118 
-0.566505 0.0202437 0.353034 
-0.547624 0.0038106 0.326848 
-0.535243 -0.0419995 0.339226 
-0.519904 -0.0451796 0.322374 
-0.485022 -0.0593687 0.300418 
-0.494711 -0.162635 0.319768 
-0.405663 -0.177471 0.257812 
-0.352282 -0.180769 0.220424 
-0.333909 -0.228514 0.202555 
-0.313506 -0.235003 0.188852 
-0.298893 -0.237579 0.163358 
-0.27632 -0.257829 0.171053 
-0.308512 -0.299519 0.198217 
-0.315196 -0.323203 0.183141 
-0.347046 -0.367503 0.167344 
-0.363805 -0.381331 0.166844 
-0.362768 -0.36049 0.133975 
-0.389495 -0.367633 0.111713 
-0.393771 -0.359189 0.0929685 
-0.392234 -0.344954 0.0725255 
-0.400285 -0.332879 0.0701447 
-0.460288 -0.390107 0.0934652 
-0.415424 -0.299955 0.0276924 
-0.425855 -0.300667 -0.0135877 
-0.454035 -0.291512 -0.033419 
-0.486785 -0.298153 -0.0434369 
-0.483766 -0.285527 -0.0516807 
-0.45152 -0.247955 -0.0746055 
-0.498525 -0.270275 -0.0528632 
-0.499747 -0.22565 -0.051136 
-0.583258 -0.255245 0.0132816 
-0.558017 -0.1654 -0.00756892 
-0.59928 -0.193873 0.0198301 
-0.615004 -0.144562 0.0260398 
-0.664876 -0.140305 0.0506392 
-0.655873 -0.0944561 0.0436915 
-0.670585 -0.0791848 0.0498138 
-0.713923 -0.0684628 0.0686191 
-0.696658 0.00170245 0.0678873 
nan nan nan
-0.747057 0.0495208 0.0571147 
-0.717544 0.0713278 0.0723939 
-0.703962 0.0877116 0.0812625 
-0.713972 0.0899338 0.074712 
-0.717208 0.100909 0.0750616 
-0.722021 0.123094 0.0829896 
-0.759743 0.130869 0.0510594 
-0.740399 0.160033 0.0953679 
-0.743313 0.17646 0.107448 
-0.744351 0.176863 0.103923 
-0.742931 0.183833 0.111398 
-0.747565 0.197227 0.13467 
-0.743071 0.204157 0.118103 
-0.743255 0.207816 0.114962 
-0.744516 0.217944 0.118533 
-0.74479 0.217577 0.102626 
-0.746764 0.223234 0.0923636 
-0.750498 0.237474 0.0824421 
-0.755995 0.257999 0.0872109 
-0.758331 0.261923 0.0534424 
-0.759091 0.271359 0.0634713 
-0.763345 0.28589 0.0727593 
-0.765793 0.269977 0.0210292 
-0.756496 0.315964 0.0489694 
-0.764686 0.335121 0.016564 
-0.743961 0.345769 0.0269067 
-0.740869 0.360842 0.0379394 
nan nan nan
-0.707351 0.394904 0.0418596 
-0.706536 0.411157 0.0287875 
-0.707662 0.408134 0.0196173 
-0.724691 0.422449 -0.010097 
nan nan nan
-0.764976 0.447167 -0.0366823 
-0.78536 0.480661 -0.0605311 
-0.791083 0.56775 -0.104675 
-0.787412 0.618784 -0.156435 
nan nan nan
-0.776788 0.684401 -0.210494 
-0.771569 0.754284 -0.283334 
-0.741931 0.863977 -0.334196 
nan nan nan
-0.689188 0.930947 -0.396748 
-0.634217 0.984519 -0.420181 
-0.58742 1.15518 -0.511461 
-0.551428 1.07898 -0.485258 
-0.483507 1.04816 -0.469544 
-0.458876 0.987055 -0.483439 
-0.489114 1.01562 -0.547908 
-0.488371 0.910878 -0.532512 
-0.478201 0.867976 -0.576403 
-0.461004 0.831423 -0.58364 
-0.455012 0.749139 -0.523195 
-0.456255 0.749845 -0.531176 
nan nan nan
-0.422945 0.629777 -0.419785 
-0.437439 0.688853 -0.474386 
-0.405392 0.564489 -0.370817 
-0.403187 0.554545 -0.363097 
-0.386421 0.496742 -0.327282 
-0.400039 0.530653 -0.300183 
-0.397228 0.508827 -0.258946 
-0.405621 0.500989 -0.259465 
-0.412883 0.532429 -0.260048 
nan nan nan
-0.404284 0.52294 -0.206148 
-0.399751 0.52061 -0.170199 
-0.391097 0.532854 -0.155726 
-0.366268 0.565386 -0.151342 
-0.351416 0.58724 -0.134664 
-0.371979 0.583144 -0.0965092 
-0.374678 0.586488 -0.0813463 
-0.375977 0.587428 -0.0764223 
-0.391152 0.58095 -0.0582774 
-0.398905 0.568759 -0.0396743 
-0.416241 0.557093 -0.0184204 
-0.409729 0.543918 -0.00844604 
-0.426529 0.526883 0.00539602 
-0.411403 0.536591 0.0160088 
nan nan nan
-0.350806 0.555663 0.00606248 
-0.384427 0.540746 0.0347719 
-0.397314 0.527456 0.0543499 
-0.375862 0.532158 0.0389052 
-0.366027 0.501663 0.0135098 
-0.375514 0.462908 0.00101194 
-0.398319 0.417802 -0.0232458 
-0.453444 0.403282 0.000452167 
-0.466071 0.391479 0.019373 
-0.462835 0.395228 -0.00127491 
-0.466209 0.39121 -0.00915031 
-0.474057 0.377553 -0.00914522 
-0.473859 0.382557 -0.0239173 
-0.476893 0.378671 -0.0267347 
-0.478772 0.388741 -0.0521861 
-0.483796 0.358524 -0.0274645 
-0.48471 0.3752 -0.0440883 
-0.490922 0.358716 -0.0406001 
-0.493136 0.364669 -0.0532158 
-0.500222 0.348982 -0.0553936 
-0.505242 0.331557 -0.0545068 
-0.511275 0.33926 -0.0739638 
-0.515692 0.322136 -0.0826447 
nan nan nan
-0.531216 0.32509 -0.121134 
-0.541721 0.309471 -0.132735 
-0.547095 0.291998 -0.136838 
-0.559315 0.295511 -0.157885 
-0.562866 0.284356 -0.168943 
-0.579562 0.277135 -0.191567 
-0.599703 0.269071 -0.228407 
-0.612343 0.264001 -0.265663 
-0.618901 0.255832 -0.279258 
-0.624478 0.236989 -0.319834 
-0.612141 0.219784 -0.356526 
-0.58582 0.209551 -0.364331 
-0.508857 0.163024 -0.370799 
-0.590744 0.170018 -0.425061 
-0.562317 0.145018 -0.430113 
-0.450664 0.091082 -0.383026 
-0.533168 0.102629 -0.439022 
-0.525004 0.088796 -0.460347 
-0.506229 0.0708774 -0.45125 
-0.509563 0.0663211 -0.451876 
-0.53278 0.069483 -0.467249 
-0.530742 0.0754747 -0.463504 
-0.496417 0.0762004 -0.440798 
-0.538428 0.0970498 -0.468925 
-0.567305 0.102418 -0.486841 
-0.515086 0.100289 -0.463276 
