-0.659372 0.283581 -0.260071 
-0.676817 0.270793 -0.25559 
-0.674173 0.197709 -0.225082 
-0.701078 0.242642 -0.252815 
-0.712466 0.224179 -0.250983 
-0.708975 0.161703 -0.227225 
-0.730688 0.191298 -0.256364 
-0.73393 0.179558 -0.257384 
-0.737066 0.161463 -0.25376 
-0.747491 0.157093 -0.262543 
-0.747556 0.131181 -0.28129 
-0.743137 0.0422948 -0.260232 
-0.728847 0.0669498 -0.325758 
-0.728458 0.0477647 -0.329953 
-0.722141 0.0435629 -0.340109 
-0.744772 0.00851083 -0.349717 
-0.717521 0.000977113 -0.3595 
-0.706243 -0.0210932 -0.377433 
-0.67844 -0.0124626 -0.372148 
-0.687364 -0.0230353 -0.380904 
-0.659401 -0.023623 -0.378311 
-0.653432 -0.035957 -0.392167 
-0.642886 -0.0496189 -0.398721 
-0.656003 -0.0551586 -0.417954 
-0.665907 -0.0644351 -0.438075 
-0.680899 -0.0697778 -0.463855 
-0.662662 -0.0509048 -0.476152 
-0.685764 -0.0520005 -0.492663 
nan nan nan
-0.702712 -0.0290956 -0.518721 
-0.667426 -0.00823464 -0.501831 
-0.656354 0.00198298 -0.497457 
-0.669936 0.00436481 -0.508163 
-0.661083 0.0174004 -0.504476 
-0.651234 0.0421591 -0.501664 
-0.670095 0.0372322 -0.51697 
-0.691428 0.0305198 -0.534408 
-0.649 0.0789059 -0.509525 
-0.680406 0.0787934 -0.540742 
-0.632333 0.116839 -0.5023 
-0.625556 0.100732 -0.516167 
nan nan nan
-0.597231 0.0852339 -0.529985 
-0.555085 0.0919258 -0.52037 
-0.555851 0.0812728 -0.555578 
-0.536998 0.0932015 -0.560549 
nan nan nan
-0.514303 0.103243 -0.592619 
-0.524013 0.0958056 -0.648881 
-0.461268 0.105129 -0.607086 
-0.424387 0.10605 -0.616227 
-0.404555 0.111233 -0.62667 
-0.379573 0.140269 -0.633557 
-0.368158 0.153503 -0.624988 
-0.345671 0.167882 -0.627337 
-0.333597 0.177585 -0.611273 
-0.320441 0.184314 -0.595922 
-0.29311 0.20819 -0.610221 
-0.272241 0.185277 -0.571856 
-0.257171 0.187272 -0.579037 
-0.241525 0.180031 -0.572952 
-0.224921 0.183855 -0.575142 
-0.201852 0.192481 -0.590402 
-0.187962 0.201745 -0.608273 
-0.176208 0.204 -0.613429 
-0.170521 0.205668 -0.614376 
-0.165704 0.220686 -0.634352 
-0.155514 0.201799 -0.63791 
-0.143472 0.153706 -0.607235 
-0.139915 0.181813 -0.652275 
-0.133016 0.168217 -0.65496 
-0.130358 0.161826 -0.655178 
-0.123723 0.157392 -0.667345 
-0.117301 0.138244 -0.664333 
-0.112287 0.132268 -0.6696 
-0.11062 0.130541 -0.681154 
-0.108205 0.110126 -0.656947 
-0.0994642 0.105894 -0.659205 
-0.081482 0.10131 -0.667471 
-0.0863253 0.0612869 -0.6064 
-0.0426508 0.0618709 -0.640985 
-0.0172876 0.0373424 -0.634751 
0.00140351 0.0416517 -0.646611 
0.0286639 0.0145686 -0.641876 
0.0550269 0.00262131 -0.641344 
0.0794496 -0.0193822 -0.644392 
0.119273 -0.089861 -0.698675 
0.101848 -0.0693352 -0.618214 
0.102149 -0.1023 -0.63518 
0.0955535 -0.126292 -0.63852 
0.11433 -0.145257 -0.649776 
nan nan nan
0.184331 -0.18859 -0.653308 
0.254846 -0.252508 -0.744671 
0.238909 -0.262466 -0.629737 
0.229917 -0.29381 -0.689319 
0.199348 -0.28885 -0.664501 
0.175947 -0.276655 -0.675966 
0.170521 -0.286308 -0.690565 
0.153856 -0.269589 -0.642643 
0.145176 -0.273865 -0.669807 
0.127764 -0.296171 -0.687409 
0.111616 -0.309324 -0.721313 
0.0455507 -0.274923 -0.716067 
0.0579849 -0.316516 -0.825065 
-0.00430803 -0.276576 -0.755056 
-0.0318872 -0.247468 -0.739716 
-0.042027 -0.254872 -0.768548 
-0.0658594 -0.226344 -0.736149 
-0.0875113 -0.231076 -0.764281 
-0.134728 -0.193135 -0.721749 
-0.157217 -0.180188 -0.699557 
-0.181562 -0.159333 -0.66258 
-0.206478 -0.187026 -0.679693 
-0.233245 -0.255476 -0.759726 
-0.26608 -0.269136 -0.740926 
-0.278114 -0.219495 -0.657235 
-0.275744 -0.246765 -0.705529 
-0.276504 -0.274342 -0.755298 
nan nan nan
-0.350142 -0.257558 -0.707685 
-0.381312 -0.270887 -0.709429 
-0.391074 -0.248292 -0.665051 
-0.393309 -0.277689 -0.682328 
nan nan nan
-0.414956 -0.311193 -0.677603 
-0.423816 -0.296447 -0.633297 
-0.414663 -0.341018 -0.618645 
nan nan nan
-0.391175 -0.418193 -0.630418 
-0.401517 -0.431381 -0.599877 
-0.348609 -0.525129 -0.656056 
-0.38022 -0.454804 -0.556193 
-0.33646 -0.531183 -0.649869 
-0.340731 -0.466492 -0.544269 
-0.326839 -0.506314 -0.540943 
nan nan nan
-0.268637 -0.543076 -0.476449 
nan nan nan
-0.252145 -0.620729 -0.493937 
-0.243877 -0.634041 -0.476198 
-0.234173 -0.638228 -0.433336 
-0.248547 -0.736799 -0.453304 
-0.236094 -0.693477 -0.393342 
-0.240035 -0.717847 -0.376413 
-0.228843 -0.652342 -0.33233 
-0.238113 -0.683548 -0.300653 
-0.251529 -0.770611 -0.326873 
-0.251631 -0.687775 -0.262724 
-0.27248 -0.69656 -0.231869 
-0.289119 -0.716172 -0.209657 
-0.325609 -0.719916 -0.184553 
-0.309604 -0.759077 -0.180286 
-0.293207 -0.786028 -0.179975 
-0.297498 -0.801446 -0.152539 
-0.334848 -0.78598 -0.131868 
-0.333167 -0.811242 -0.102282 
-0.387284 -0.786267 -0.110036 
-0.382234 -0.804862 -0.0821498 
-0.3777 -0.796637 -0.0630844 
-0.379646 -0.7921 -0.0336972 
-0.324874 -0.807046 0.00371391 
-0.323456 -0.795364 0.0334849 
-0.371197 -0.761501 0.0490976 
-0.358983 -0.750088 0.078078 
-0.372906 -0.724839 0.107463 
-0.367208 -0.71713 0.13523 
-0.341471 -0.740951 0.178105 
-0.385215 -0.697181 0.153589 
-0.363937 -0.713841 0.168775 
-0.357489 -0.724249 0.189958 
-0.338493 -0.765849 0.241334 
-0.36609 -0.725985 0.222447 
-0.377085 -0.716886 0.241037 
-0.379803 -0.740022 0.297761 
-0.419705 -0.692664 0.342332 
-0.40444 -0.732192 0.368266 
-0.37294 -0.782193 0.444645 
-0.293232 -0.862822 0.543777 
-0.34737 -0.75795 0.506791 
-0.304224 -0.732538 0.534661 
-0.246361 -0.752794 0.586921 
-0.214915 -0.754936 0.598792 
-0.169941 -0.76091 0.635713 
-0.131989 -0.740436 0.62357 
-0.0280358 -0.714072 0.683472 
0.0396451 -0.674184 0.646471 
0.142819 -0.592226 0.628916 
0.243652 -0.554534 0.655425 
0.187337 -0.513686 0.520499 
0.190871 -0.49276 0.472168 
0.195129 -0.455638 0.469382 
0.222741 -0.462055 0.536897 
0.206382 -0.423507 0.488218 
0.194623 -0.3958 0.401006 
0.199656 -0.379901 0.351086 
0.209783 -0.362228 0.307059 
0.212738 -0.358279 0.316964 
0.231695 -0.357228 0.269933 
0.247505 -0.357944 0.231205 
0.263543 -0.360521 0.193139 
0.282964 -0.359313 0.14618 
0.29059 -0.350893 0.126279 
0.31707 -0.34069 0.0740878 
0.325382 -0.27361 0.0435789 
0.344032 -0.213631 0.0116048 
0.361792 -0.165145 -0.0343851 
nan nan nan
0.418438 -0.107577 -0.108133 
0.418051 -0.138127 -0.113061 
0.467142 -0.131005 -0.158371 
0.455943 -0.172694 -0.164201 
0.478371 -0.185038 -0.178634 
0.51769 -0.230643 -0.192112 
0.521171 -0.261938 -0.192966 
0.518333 -0.286955 -0.216445 
0.544657 -0.306461 -0.238198 
0.532404 -0.335911 -0.234175 
0.550647 -0.360831 -0.238347 
0.549343 -0.388284 -0.236508 
0.522515 -0.407052 -0.24062 
0.423787 -0.465176 -0.237779 
0.517647 -0.459961 -0.247155 
0.523715 -0.474265 -0.259205 
0.51015 -0.506792 -0.245896 
0.538398 -0.524731 -0.240206 
0.532854 -0.526936 -0.23078 
0.540517 -0.544066 -0.222703 
0.545354 -0.539804 -0.222226 
0.572217 -0.539367 -0.231939 
0.571296 -0.553974 -0.223422 
0.548468 -0.568259 -0.190854 
0.57087 -0.573417 -0.209616 
0.586284 -0.581973 -0.217484 
0.55047 -0.575833 -0.181472 
0.576791 -0.595436 -0.197021 
0.585854 -0.618218 -0.192522 
0.561135 -0.625959 -0.16946 
0.514577 -0.621946 -0.104144 
0.536555 -0.673512 -0.155839 
0.486038 -0.655668 -0.0832901 
0.493526 -0.709999 -0.130022 
0.483993 -0.726701 -0.127462 
0.47421 -0.749005 -0.127324 
0.454343 -0.753603 -0.107938 
0.42449 -0.745994 -0.0416162 
0.405415 -0.812518 -0.11053 
0.375915 -0.84185 -0.0803224 
0.342192 -0.865497 -0.0938145 
0.3188 -0.886898 -0.0723475 
0.288264 -0.907325 -0.0857066 
0.279712 -0.905768 -0.0290788 
0.239013 -0.901535 -0.0503501 
0.22251 -0.900384 0.0434771 
0.157712 -0.90236 -0.0130654 
0.137323 -0.905783 0.0336793 
0.0981675 -0.907142 0.00601996 
0.0778999 -0.900681 0.0368578 
0.0625169 -0.90437 0.0403175 
0.0518713 -0.913049 0.0618275 
0.0344026 -0.916967 0.0272499 
0.055074 -0.913719 0.084396 
0.0463827 -0.919039 0.0649417 
0.057625 -0.924634 0.0988121 
0.0488839 -0.942411 0.074302 
0.0417098 -0.952386 0.0574044 
0.0643825 -0.947378 0.121007 
0.0572013 -0.970649 0.0775583 
0.0641833 -0.985283 0.083926 
0.0697901 -0.997395 0.0721961 
0.0851856 -1.02097 0.0861209 
0.0999361 -1.02282 0.114265 
0.101276 -1.0311 0.0758961 
0.113265 -1.03862 0.102342 
0.127961 -1.04393 0.123428 
0.125156 -1.06525 0.0916282 
0.140848 -1.07371 0.0925407 
0.154166 -1.07759 0.0772637 
0.172381 -1.08246 0.0605747 
0.192905 -1.08578 0.0767772 
0.210823 -1.09591 0.0973499 
0.204064 -1.08753 0.0504933 
0.210905 -1.08907 0.035148 
0.219022 -1.08791 0.0252648 
0.237032 -1.09218 0.0237005 
0.248541 -1.09003 0.00173478 
0.282774 -1.11039 0.0373126 
0.275093 -1.09178 -0.0235765 
0.303368 -1.09939 -0.0227204 
0.305178 -1.09752 -0.0583116 
0.344667 -1.09978 -0.0119192 
0.332063 -1.06951 -0.0550212 
nan nan nan
0.403492 -1.09463 0.0361741 
0.413883 -1.0572 0.0490584 
0.421252 -1.05565 0.068075 
0.421865 -1.04037 0.130472 
0.419152 -1.03094 0.148271 
0.461876 -1.0465 0.213799 
0.412737 -0.994453 0.174876 
0.421732 -1.00402 0.194808 
0.410262 -0.969941 0.196646 
0.451811 -0.969888 0.203924 
0.537907 -1.00786 0.242962 
0.451254 -0.91321 0.183249 
0.509914 -0.91872 0.170302 
0.523197 -0.900522 0.135955 
0.637664 -0.961766 0.171914 
0.596255 -0.872507 0.138662 
0.692086 -0.897214 0.150896 
0.604317 -0.80863 0.129515 
0.634574 -0.782926 0.126278 
0.707298 -0.831626 0.138924 
0.647711 -0.730688 0.109629 
0.669091 -0.717036 0.111172 
0.678744 -0.6558 0.0802637 
0.68712 -0.6306 0.0644607 
0.702376 -0.60185 0.0410586 
0.700616 -0.595196 0.0710259 
0.702608 -0.588662 0.0724157 
0.718785 -0.552974 0.081287 
0.742708 -0.526486 0.0786769 
0.705706 -0.559466 0.171348 
0.758955 -0.495538 0.180327 
0.795237 -0.440168 0.208384 
nan nan nan
0.77655 -0.40863 0.335575 
0.808607 -0.311399 0.324707 
0.818987 -0.236552 0.386548 
0.814554 -0.183746 0.403313 
0.81118 -0.155577 0.443533 
0.813686 -0.109657 0.496291 
0.811499 -0.0870442 0.528126 
0.816792 -0.0976658 0.553461 
0.793244 -0.0606739 0.552781 
0.77695 -0.0376426 0.569493 
0.708773 -0.0345784 0.591414 
0.735365 -0.0458715 0.611513 
0.703017 -0.0967968 0.622334 
0.729341 -0.0485967 0.614392 
0.730063 -0.0440066 0.620026 
0.725821 -0.0271999 0.626375 
0.725793 -0.0124488 0.646879 
0.733269 0.00967701 0.645846 
0.768599 0.0279285 0.669225 
0.785015 0.0431863 0.683269 
0.764726 0.0624387 0.670638 
0.766678 0.0935953 0.672406 
0.788368 0.137428 0.690554 
0.774571 0.143431 0.679299 
0.7615 0.154528 0.66808 
0.76817 0.172425 0.673418 
0.788385 0.207921 0.69119 
0.767566 0.203712 0.674361 
0.742573 0.193397 0.649214 
0.727747 0.219015 0.649395 
0.720319 0.21569 0.64564 
nan nan nan
0.70483 0.20452 0.632825 
0.685456 0.18834 0.613486 
nan nan nan
0.701428 0.214687 0.639393 
nan nan nan
0.668006 0.225368 0.633714 
0.642516 0.21445 0.613758 
0.675393 0.274146 0.660844 
0.601656 0.239041 0.606866 
0.606544 0.27598 0.634828 
nan nan nan
0.600622 0.333376 0.686058 
0.546559 0.322458 0.66115 
0.497797 0.299259 0.608061 
0.497124 0.303168 0.657183 
0.532691 0.313841 0.737158 
0.584424 0.313357 0.879599 
0.500344 0.27867 0.796772 
0.454103 0.261585 0.792529 
0.56129 0.294534 0.931222 
0.466958 0.223753 0.877082 
0.42274 0.178946 0.894205 
0.35379 0.116904 0.917996 
0.382893 0.0648282 1.03802 
0.219593 0.127625 0.947301 
0.163097 0.115033 0.996447 
0.12431 0.103119 1.01038 
0.0500194 0.07796 0.992998 
0.0153086 0.0659235 0.986878 
0.0122917 0.0652683 0.976831 
-0.0446401 0.06878 0.982047 
-0.0678655 0.0721351 0.978781 
-0.0748146 0.0713765 0.970355 
-0.0571522 0.0646277 0.951328 
-0.135315 0.0815742 0.973958 
-0.116648 0.0802819 0.959077 
-0.12904 0.0896463 0.950062 
-0.146711 0.100974 0.942627 
-0.146259 0.104886 0.931756 
nan nan nan
-0.182535 0.127668 0.923574 
-0.173842 0.128752 0.900558 
-0.195252 0.145656 0.892602 
-0.151653 0.122529 0.844329 
-0.222832 0.170112 0.870151 
-0.220106 0.196788 0.843521 
-0.216044 0.214607 0.825235 
-0.223648 0.257229 0.803884 
-0.18257 0.231416 0.772651 
-0.137375 0.194561 0.734109 
-0.191328 0.284616 0.768465 
-0.178191 0.304555 0.761694 
-0.167453 0.310416 0.731377 
-0.117117 0.267951 0.658159 
-0.17993 0.377248 0.699291 
-0.121525 0.332763 0.649679 
-0.0738778 0.288038 0.591212 
-0.12192 0.401217 0.592669 
-0.103412 0.418325 0.555167 
-0.114397 0.460169 0.562575 
-0.132311 0.50842 0.55334 
-0.0752281 0.453717 0.520664 
-0.0787871 0.534016 0.545098 
-0.0587806 0.52326 0.542808 
-0.0138297 0.483735 0.533134 
0.0050404 0.48925 0.550305 
0.0447229 0.484308 0.551467 
0.0716826 0.522972 0.542737 
0.109651 0.530187 0.523515 
0.137286 0.485951 0.507138 
0.130935 0.531549 0.521453 
0.155168 0.537572 0.525851 
0.191793 0.458084 0.434124 
0.100279 0.583038 0.473153 
0.153136 0.485383 0.360489 
0.0779355 0.612494 0.396539 
0.0645061 0.632143 0.376031 
0.112273 0.586542 0.300076 
0.0339802 0.682896 0.350155 
0.0339229 0.685955 0.322335 
0.0193842 0.698257 0.30784 
0.00552674 0.704038 0.290697 
-0.00815654 0.705865 0.27321 
-0.0230094 0.726988 0.272945 
-0.00828327 0.675886 0.253995 
-0.0112557 0.693745 0.260148 
-0.0108988 0.694216 0.249676 
-0.0103118 0.691204 0.231964 
nan nan nan
-0.0195178 0.728023 0.214286 
-0.0274721 0.755009 0.19673 
-0.0275335 0.751081 0.171918 
-0.0323551 0.75955 0.155257 
-0.0450921 0.778067 0.146464 
-0.0268078 0.756022 0.129239 
-0.0166506 0.751234 0.119769 
-0.00629559 0.747159 0.110679 
0.0134269 0.751114 0.0953301 
0.0407863 0.728249 0.0605538 
0.0514296 0.720443 0.0367444 
0.0817814 0.717991 -0.00112038 
0.0802543 0.696308 -0.011639 
0.0913225 0.655556 -0.0291462 
0.141042 0.678361 -0.125167 
0.151758 0.563896 -0.144234 
0.158349 0.498347 -0.143633 
0.180686 0.478592 -0.184628 
0.193345 0.454027 -0.202176 
0.184988 0.421906 -0.212603 
0.214984 0.406326 -0.224179 
0.232196 0.455234 -0.264008 
0.241106 0.447084 -0.292664 
0.235161 0.478493 -0.354876 
0.234014 0.493798 -0.37394 
0.204689 0.468725 -0.371637 
0.177497 0.47422 -0.393783 
0.158612 0.460378 -0.396875 
0.13646 0.439103 -0.394077 
0.118511 0.444701 -0.379039 
0.120583 0.528209 -0.432364 
0.0670971 0.425321 -0.36346 
0.0332794 0.399731 -0.385303 
-0.0033488 0.406741 -0.381889 
-0.0249513 0.440669 -0.407768 
-0.0363998 0.429611 -0.397225 
-0.0496246 0.378232 -0.371022 
-0.0528502 0.437051 -0.370826 
-0.0794119 0.433325 -0.321982 
-0.0766972 0.556181 -0.346936 
-0.122623 0.505859 -0.251063 
-0.111704 0.558505 -0.286586 
-0.137111 0.586664 -0.247002 
-0.140289 0.649809 -0.251849 
-0.158159 0.637397 -0.203348 
-0.165951 0.649774 -0.190259 
-0.177867 0.697218 -0.178323 
-0.20102 0.681787 -0.11055 
nan nan nan
-0.220616 0.659272 -0.0489369 
-0.226839 0.684401 -0.0366465 
-0.232589 0.708562 -0.0253971 
-0.241667 0.695315 -0.0234307 
-0.249641 0.695556 -0.0179195 
-0.261967 0.70594 -0.000891039 
-0.286567 0.689849 -0.00706198 
-0.289796 0.740681 0.0202791 
-0.302563 0.762148 0.0347771 
-0.304448 0.758669 0.0355799 
-0.308411 0.767683 0.0438402 
-0.308083 0.798405 0.0624603 
-0.319485 0.778904 0.0631146 
-0.323945 0.775809 0.0661138 
-0.328869 0.783401 0.0818326 
-0.338644 0.764066 0.0755071 
-0.346924 0.754256 0.0765902 
-0.362615 0.747144 0.0907895 
-0.37412 0.755496 0.111009 
-0.400666 0.719752 0.0982422 
-0.400251 0.729991 0.112334 
-0.403372 0.739145 0.132365 
-0.431667 0.695267 0.0971888 
-0.41805 0.694505 0.154955 
-0.449143 0.680906 0.163761 
-0.419832 0.669469 0.188574 
-0.421991 0.671227 0.209771 
nan nan nan
-0.407924 0.638329 0.253063 
-0.430976 0.628162 0.265591 
-0.432258 0.629907 0.258052 
-0.476522 0.62427 0.256091 
nan nan nan
-0.52957 0.643442 0.256306 
-0.563874 0.662759 0.25175 
-0.662059 0.651614 0.24466 
-0.716855 0.652969 0.240105 
nan nan nan
-0.784954 0.626892 0.252972 
-0.86153 0.604343 0.29096 
-0.975139 0.600945 0.322078 
nan nan nan
-1.02259 0.519819 0.370992 
-1.04576 0.472352 0.435559 
-1.22709 0.455751 0.509825 
-1.14905 0.409011 0.515087 
-1.09211 0.339624 0.542873 
-1.05417 0.285555 0.513124 
-1.14886 0.305434 0.487677 
-1.07033 0.259425 0.428022 
-1.10211 0.231481 0.384329 
-1.06707 0.215444 0.346106 
-0.992855 0.201685 0.328464 
-1.00047 0.198902 0.324077 
nan nan nan
-0.827595 0.196169 0.269058 
-0.901555 0.192425 0.301332 
-0.747272 0.191258 0.242846 
-0.732768 0.189376 0.239847 
-0.653519 0.173491 0.213816 
-0.664962 0.211105 0.259015 
-0.614426 0.216237 0.255025 
-0.613668 0.220264 0.244559 
-0.63866 0.236345 0.272275 
nan nan nan
-0.59036 0.248989 0.295956 
-0.553394 0.265255 0.301512 
-0.546753 0.271781 0.320997 
-0.563692 0.242659 0.362677 
-0.561135 0.237073 0.394246 
-0.530573 0.273504 0.406389 
-0.51867 0.288308 0.420675 
-0.523502 0.277313 0.437208 
-0.510939 0.302669 0.443831 
-0.493697 0.318409 0.45491 
-0.477418 0.342622 0.458015 
-0.453583 0.340819 0.45968 
-0.436057 0.363522 0.447202 
-0.42647 0.356765 0.467758 
nan nan nan
-0.417319 0.284856 0.50086 
-0.401356 0.33217 0.49512 
-0.384997 0.362282 0.490329 
-0.38638 0.328192 0.486745 
-0.379934 0.308678 0.449532 
-0.368501 0.311093 0.408628 
-0.368904 0.325923 0.357324 
-0.364497 0.383237 0.333489 
-0.347112 0.409865 0.330761 
-0.36636 0.391917 0.32127 
-0.371945 0.389234 0.312434 
-0.364817 0.398572 0.295465 
-0.381059 0.390884 0.289912 
-0.382247 0.392404 0.283754 
-0.407382 0.386157 0.277576 
-0.37115 0.402547 0.261514 
-0.397335 0.396028 0.263707 
-0.385057 0.404735 0.250214 
-0.400024 0.401341 0.246556 
-0.393836 0.407395 0.229261 
-0.38079 0.414192 0.210586 
-0.40767 0.407418 0.203708 
-0.40087 0.407537 0.179013 
nan nan nan
-0.441374 0.401518 0.149306 
-0.440939 0.401507 0.125169 
-0.428315 0.406127 0.103239 
-0.453825 0.398795 0.0930387 
-0.452722 0.387913 0.0748441 
-0.471233 0.386169 0.0459914 
-0.49773 0.384117 0.010915 
-0.526262 0.379819 -0.0153899 
-0.536055 0.377676 -0.0302319 
-0.572691 0.37254 -0.0685012 
-0.604278 0.348871 -0.0939503 
-0.61381 0.314493 -0.093541 
-0.61735 0.237944 -0.118268 
-0.640215 0.323099 -0.179682 
-0.628161 0.285683 -0.204129 
-0.578041 0.157908 -0.18966 
-0.611283 0.251727 -0.235891 
-0.616073 0.237339 -0.265245 
-0.606096 0.209846 -0.271926 
-0.603938 0.215125 -0.276103 
-0.616341 0.245376 -0.288907 
-0.615202 0.236719 -0.280344 
-0.608419 0.201505 -0.256596 
-0.633926 0.248891 -0.270225 
-0.647711 0.282003 -0.285169 
-0.636597 0.222773 -0.254615 
