-0.236574 0.496777 -0.83029 
-0.210668 0.501931 -0.832558 
-0.137063 0.429241 -0.762006 
-0.152925 0.501577 -0.835676 
-0.133919 0.462304 -0.848293 
-0.0826005 0.40605 -0.801107 
-0.114455 0.427554 -0.877479 
-0.107598 0.406661 -0.877855 
-0.0889138 0.381562 -0.871607 
-0.0898863 0.377274 -0.894094 
-0.113189 0.333618 -0.887646 
-0.0431872 0.235174 -0.81453 
-0.106525 0.212012 -0.857273 
-0.0992211 0.188239 -0.855652 
-0.0998252 0.178023 -0.855875 
-0.0748558 0.147088 -0.898961 
-0.0710837 0.12732 -0.886683 
-0.0646879 0.103814 -0.896385 
-0.05898 0.0925193 -0.868274 
-0.0607854 0.077618 -0.881884 
-0.0637927 0.06889 -0.833134 
-0.0682531 0.0431001 -0.835768 
-0.060286 0.00918309 -0.830577 
-0.0860315 -0.00289736 -0.857666 
-0.10661 -0.0253072 -0.872013 
-0.136568 -0.0446716 -0.8788 
-0.134811 -0.029168 -0.811414 
-0.159555 -0.0432968 -0.859827 
nan nan nan
-0.190141 -0.0450823 -0.874171 
-0.191794 -0.029473 -0.807761 
-0.196466 -0.0142673 -0.768051 
-0.218034 -0.0194133 -0.812501 
-0.227042 -0.0107977 -0.794327 
-0.252815 0.0028005 -0.759113 
-0.258207 0.00207457 -0.820773 
-0.277125 0.00188735 -0.867652 
-0.290081 0.0346212 -0.778337 
-0.299639 0.0457964 -0.869844 
-0.308091 0.0897772 -0.760643 
-0.316487 0.0736198 -0.818487 
nan nan nan
-0.335261 0.0299543 -0.839708 
-0.350786 0.0259136 -0.762755 
-0.377437 -0.0135986 -0.816774 
-0.395601 -0.0344178 -0.778509 
nan nan nan
-0.415623 -0.0741338 -0.749641 
-0.457245 -0.137196 -0.807054 
-0.452165 -0.129786 -0.688237 
-0.477498 -0.154504 -0.664396 
-0.508825 -0.167136 -0.632812 
-0.538619 -0.15909 -0.600015 
-0.526485 -0.129266 -0.573941 
-0.573561 -0.151753 -0.590399 
-0.557554 -0.121063 -0.550617 
-0.557915 -0.112863 -0.521482 
-0.628318 -0.105624 -0.510223 
-0.565627 -0.120546 -0.46543 
-0.579277 -0.131944 -0.454566 
-0.579348 -0.147005 -0.418704 
-0.594728 -0.158815 -0.402767 
-0.617066 -0.167512 -0.382796 
-0.645065 -0.183986 -0.384637 
-0.653239 -0.178888 -0.3804 
-0.667006 -0.179531 -0.380891 
-0.709729 -0.197082 -0.398297 
-0.682126 -0.220475 -0.407068 
-0.604543 -0.234722 -0.363961 
-0.673799 -0.270226 -0.405504 
-0.654652 -0.287336 -0.398241 
-0.637826 -0.301286 -0.392128 
-0.644285 -0.329974 -0.398541 
-0.605275 -0.347789 -0.38467 
-0.604455 -0.363804 -0.385417 
-0.607137 -0.372583 -0.397785 
-0.567614 -0.363557 -0.367774 
-0.561471 -0.375029 -0.356461 
-0.580951 -0.400255 -0.34204 
-0.502738 -0.397624 -0.293793 
-0.531711 -0.444445 -0.280094 
-0.519309 -0.48146 -0.255178 
-0.527131 -0.499713 -0.232373 
-0.505281 -0.529934 -0.2311 
-0.48942 -0.565151 -0.207984 
-0.468608 -0.604855 -0.191546 
-0.463836 -0.696859 -0.187721 
-0.393901 -0.621745 -0.15358 
-0.357817 -0.649412 -0.190211 
-0.342127 -0.657096 -0.213824 
-0.290823 -0.65585 -0.21432 
nan nan nan
-0.318841 -0.758406 -0.216961 
-0.350859 -0.916747 -0.257916 
-0.26568 -0.755799 -0.201475 
-0.339074 -0.789074 -0.24901 
-0.300932 -0.735407 -0.236342 
-0.342404 -0.72835 -0.277639 
-0.35748 -0.731799 -0.296678 
-0.348019 -0.663811 -0.286136 
-0.368714 -0.669334 -0.307139 
-0.371644 -0.682574 -0.334539 
-0.400246 -0.705668 -0.381435 
-0.427705 -0.63394 -0.392414 
-0.447112 -0.760012 -0.480907 
-0.399448 -0.629794 -0.446838 
-0.383685 -0.594091 -0.436302 
-0.386993 -0.641859 -0.486385 
-0.360467 -0.589626 -0.458891 
-0.34756 -0.603771 -0.519519 
-0.329387 -0.53441 -0.481766 
-0.295927 -0.482875 -0.464089 
-0.294541 -0.42182 -0.445415 
-0.256262 -0.442824 -0.49166 
-0.22605 -0.502152 -0.595069 
-0.211351 -0.461399 -0.593512 
-0.189408 -0.350731 -0.49187 
-0.204192 -0.413073 -0.572139 
-0.213885 -0.460637 -0.624014 
nan nan nan
-0.210896 -0.371921 -0.640499 
-0.219396 -0.344764 -0.658432 
-0.185728 -0.284696 -0.614281 
-0.163915 -0.302968 -0.658697 
nan nan nan
-0.130591 -0.304204 -0.676573 
-0.0838308 -0.243785 -0.607777 
-0.0383762 -0.278536 -0.626391 
nan nan nan
0.00919892 -0.355841 -0.664117 
0.0458777 -0.344993 -0.66078 
0.0783756 -0.466028 -0.731426 
0.0988351 -0.352965 -0.596245 
0.0917081 -0.483963 -0.710389 
0.106887 -0.397278 -0.552302 
0.163353 -0.420949 -0.603828 
nan nan nan
0.268022 -0.447493 -0.540078 
nan nan nan
0.351739 -0.504034 -0.611034 
0.360031 -0.513374 -0.616074 
0.410239 -0.496031 -0.574857 
0.436005 -0.526475 -0.681927 
0.464362 -0.492717 -0.598036 
0.490854 -0.492601 -0.593391 
0.482533 -0.498566 -0.523284 
0.545996 -0.491613 -0.529016 
0.601374 -0.501174 -0.597961 
0.612118 -0.49797 -0.495796 
0.624547 -0.508361 -0.465757 
0.657063 -0.511431 -0.434451 
0.698892 -0.541984 -0.388272 
0.704248 -0.499182 -0.379869 
0.707239 -0.475268 -0.346574 
0.729228 -0.462431 -0.332182 
0.806086 -0.499966 -0.359526 
0.788325 -0.450315 -0.336878 
0.850598 -0.493974 -0.373397 
0.837234 -0.470865 -0.375367 
0.827514 -0.436673 -0.37334 
0.830747 -0.392793 -0.347685 
0.809491 -0.339192 -0.307468 
0.823562 -0.317148 -0.309691 
0.879662 -0.310066 -0.34751 
0.889389 -0.283612 -0.356253 
0.916232 -0.248716 -0.384469 
0.930995 -0.203229 -0.39343 
0.937056 -0.161791 -0.38169 
0.961169 -0.174964 -0.415325 
0.940724 -0.147699 -0.404864 
0.936574 -0.12216 -0.412119 
0.923168 -0.0726018 -0.395543 
0.912049 -0.0739419 -0.438903 
0.898342 -0.0562301 -0.447277 
0.876171 -0.00824411 -0.439825 
0.827794 0.0413053 -0.496012 
0.810341 0.026415 -0.452232 
0.774498 0.108951 -0.40632 
0.734884 0.184825 -0.344107 
0.696532 0.104759 -0.450623 
0.64101 0.0509816 -0.493056 
0.591322 0.0617398 -0.426071 
0.586935 0.0456035 -0.384394 
0.554032 0.05478 -0.341291 
0.526742 -0.00644548 -0.328592 
0.500563 0.0361157 -0.216758 
0.486205 0.0235671 -0.144508 
0.453287 0.0377305 -0.055211 
0.430536 0.0808315 0.0795384 
0.368302 -0.0919042 -0.0191016 
0.34833 -0.129506 -0.0308326 
0.319381 -0.0783433 0.0101115 
0.330361 -0.00245443 0.0974459 
0.28611 -0.0180444 0.101792 
0.234273 -0.0938304 0.0536274 
0.190426 -0.114369 0.0353756 
0.138543 -0.156119 0.0315066 
0.150637 -0.135863 0.104357 
0.142992 -0.165837 0.112675 
0.138048 -0.194114 0.1278 
0.136171 -0.2334 0.133805 
0.127635 -0.278085 0.145736 
0.129319 -0.317664 0.165569 
0.106213 -0.369866 0.175034 
0.0158375 -0.38417 0.188048 
-0.0585972 -0.412064 0.204777 
-0.112166 -0.456159 0.210214 
nan nan nan
-0.215586 -0.510846 0.25003 
-0.211258 -0.547137 0.222276 
-0.231174 -0.612374 0.269056 
-0.19514 -0.637327 0.204773 
-0.191825 -0.683505 0.204236 
-0.129056 -0.719189 0.223253 
-0.0898311 -0.726038 0.226527 
-0.0491614 -0.762686 0.198479 
-0.0355161 -0.807445 0.189083 
0.0215352 -0.804505 0.176161 
0.056927 -0.810184 0.204425 
0.0814351 -0.807494 0.204558 
0.112669 -0.811445 0.169555 
0.132516 -0.793738 0.0168301 
0.1282 -0.82999 0.105701 
0.124058 -0.862341 0.103988 
0.17221 -0.856406 0.0841355 
0.193552 -0.871942 0.108543 
0.20134 -0.864354 0.0945689 
0.222055 -0.861319 0.104212 
0.232466 -0.858713 0.108859 
0.232566 -0.864258 0.158623 
0.267209 -0.85705 0.149842 
0.306628 -0.854691 0.115111 
0.299824 -0.849073 0.152553 
0.306933 -0.859259 0.179317 
0.339491 -0.848695 0.123776 
0.326243 -0.825648 0.158727 
0.318653 -0.804689 0.175906 
0.357006 -0.783709 0.144867 
0.425064 -0.81059 0.0826178 
0.389725 -0.726648 0.127985 
0.462344 -0.769844 0.0823214 
0.417748 -0.690497 0.117942 
0.433236 -0.657036 0.122047 
0.431708 -0.624357 0.128559 
0.479489 -0.640259 0.112863 
0.55021 -0.672201 0.0823582 
0.536994 -0.562143 0.134893 
0.612956 -0.531439 0.134401 
0.648197 -0.489995 0.136682 
0.705926 -0.456661 0.128726 
0.736541 -0.428148 0.114375 
0.785183 -0.39922 0.132795 
0.792694 -0.355373 0.0871077 
0.885564 -0.31479 0.135176 
0.845377 -0.253963 0.0519328 
0.895754 -0.221485 0.0658131 
0.865049 -0.181691 0.00570637 
0.901587 -0.150803 0.01073 
0.915024 -0.126142 0.0012701 
0.939623 -0.109496 0.00132905 
0.905418 -0.0845922 -0.030368 
0.977764 -0.0928364 0.017002 
0.955872 -0.083876 -0.00848841 
0.998481 -0.0905628 0.0242989 
0.982334 -0.0926425 -0.00856723 
0.965946 -0.0790436 -0.0336975 
1.04725 -0.0964479 0.0354916 
0.97335 -0.125853 -0.0287771 
0.987766 -0.13953 -0.0301826 
0.969253 -0.170941 -0.0448497 
1.00247 -0.198488 -0.0443919 
1.05333 -0.206352 -0.0129327 
1.01612 -0.207079 -0.0572906 
1.05927 -0.232852 -0.0412553 
1.08273 -0.245851 -0.00422879 
1.04158 -0.265675 -0.053771 
1.04771 -0.285358 -0.0325138 
1.03236 -0.313135 -0.0368526 
1.01867 -0.3321 -0.03726 
1.04053 -0.371407 -0.000880055 
1.06329 -0.393598 0.0270093 
1.00262 -0.395305 -0.0229704 
0.981396 -0.41225 -0.0272816 
0.973243 -0.420587 -0.0289208 
0.959575 -0.442813 -0.0148318 
0.921796 -0.452651 -0.0175555 
0.988869 -0.492051 0.031932 
0.893658 -0.470374 0.000179917 
0.895191 -0.496739 0.0216483 
0.845237 -0.495623 -0.00125388 
0.888619 -0.538656 0.0559823 
0.816046 -0.52533 0.0480546 
nan nan nan
0.909476 -0.619928 0.0828585 
0.853397 -0.588806 0.155123 
0.876528 -0.58667 0.173309 
0.895051 -0.604384 0.223209 
0.899488 -0.606471 0.248221 
0.940575 -0.672857 0.281212 
0.884143 -0.566661 0.324595 
0.909604 -0.589342 0.314129 
0.887399 -0.568797 0.343956 
0.875267 -0.630336 0.342693 
0.904042 -0.742423 0.324 
0.797461 -0.564236 0.395592 
0.775569 -0.63968 0.373765 
0.743423 -0.634134 0.325842 
0.764209 -0.773356 0.28776 
0.692846 -0.685521 0.332425 
0.693972 -0.783365 0.326156 
0.609835 -0.645806 0.391105 
0.574551 -0.705751 0.359677 
0.613053 -0.806911 0.335963 
0.512806 -0.728964 0.35526 
0.478306 -0.742345 0.355977 
0.414301 -0.713647 0.364799 
0.366544 -0.708113 0.369918 
0.312327 -0.693878 0.382938 
0.318911 -0.662555 0.384363 
0.310941 -0.656233 0.380993 
0.283167 -0.638054 0.401865 
0.237065 -0.632583 0.442923 
0.308337 -0.539709 0.43469 
0.294984 -0.529659 0.484356 
0.294686 -0.487025 0.553236 
nan nan nan
0.272742 -0.390105 0.621668 
0.283474 -0.387273 0.604082 
0.265808 -0.298967 0.693277 
0.278229 -0.260745 0.715178 
0.308447 -0.216597 0.7119 
0.323249 -0.164986 0.715999 
0.333733 -0.135861 0.713641 
0.328751 -0.094863 0.69025 
0.329366 -0.0730877 0.723271 
0.331774 -0.05045 0.73419 
0.356225 -0.0182158 0.735273 
0.380693 -0.0423934 0.772508 
0.458549 -0.0421547 0.732693 
0.390527 -0.0438648 0.784126 
0.382731 -0.0312202 0.793831 
0.364258 -0.0150866 0.806402 
0.329884 -0.00544248 0.841024 
0.313978 -0.00837421 0.866302 
0.31422 -0.0401847 0.908411 
0.298657 -0.0639324 0.932462 
0.285116 -0.0872464 0.903755 
0.269852 -0.0899491 0.92574 
0.251831 -0.0740408 0.998856 
0.23526 -0.0723593 0.976041 
0.22726 -0.0476498 0.965929 
0.215899 -0.0350026 0.985253 
0.210436 -0.013226 1.01702 
0.196421 -0.00190373 0.978484 
0.180946 0.0189367 0.935573 
0.158163 0.0338338 0.941121 
0.155379 0.025797 0.94192 
nan nan nan
0.150665 0.0371344 0.91539 
0.147974 0.0272964 0.866776 
nan nan nan
0.142366 0.0546053 0.92598 
nan nan nan
0.137619 0.089076 0.90285 
0.142366 0.0954121 0.863588 
0.132471 0.13879 0.965763 
0.119295 0.135743 0.818782 
0.0891914 0.189284 0.853232 
nan nan nan
0.109125 0.240154 0.946976 
0.0973229 0.260363 0.888897 
0.0776309 0.273472 0.778341 
0.0971903 0.299359 0.802546 
0.167941 0.333647 0.928385 
0.245149 0.366025 1.02868 
0.170013 0.391299 0.865849 
0.205646 0.403938 0.813712 
0.293796 0.420962 1.02331 
0.325828 0.428562 0.882204 
0.376259 0.442214 0.865368 
0.44893 0.476673 0.827966 
0.539379 0.496638 0.887112 
0.472834 0.525322 0.70647 
0.538211 0.499041 0.638842 
0.561309 0.511547 0.580675 
0.591815 0.55521 0.538953 
0.651528 0.580326 0.527112 
0.654006 0.527974 0.480397 
0.670985 0.608593 0.465906 
0.660268 0.630974 0.438873 
0.676526 0.602391 0.416483 
0.6748 0.570707 0.394386 
0.664884 0.698166 0.394365 
0.65304 0.653227 0.39004 
0.631209 0.671172 0.380695 
0.620541 0.682393 0.37784 
0.60917 0.678914 0.372615 
nan nan nan
0.575521 0.744444 0.366941 
0.562705 0.708099 0.359075 
0.529395 0.752597 0.358086 
0.519919 0.657445 0.328257 
0.5034 0.796203 0.353914 
0.46096 0.797769 0.351569 
0.422111 0.776517 0.341741 
0.366644 0.826009 0.298253 
0.352518 0.756206 0.320982 
0.357072 0.655221 0.323186 
0.311942 0.803793 0.324373 
0.284877 0.8011 0.351449 
0.257657 0.764252 0.313092 
0.228939 0.684932 0.264969 
0.16881 0.839415 0.320686 
0.157759 0.737307 0.309278 
0.153215 0.625238 0.275614 
0.0621597 0.756393 0.318157 
0.0288668 0.68532 0.313404 
-0.00740106 0.731289 0.309706 
-0.0763581 0.751068 0.304137 
-0.0390261 0.622249 0.282674 
-0.103977 0.682469 0.353295 
-0.0946078 0.663643 0.365866 
-0.0499434 0.634837 0.396891 
-0.0603017 0.61446 0.423213 
-0.0713848 0.581555 0.459783 
-0.0980429 0.538592 0.468366 
-0.110272 0.51194 0.499068 
-0.0885798 0.536759 0.579339 
-0.0785619 0.481901 0.551132 
-0.0724418 0.470356 0.562861 
-0.110857 0.566745 0.658479 
-0.155484 0.513367 0.47648 
-0.222134 0.620029 0.623289 
-0.238239 0.554087 0.45577 
-0.290075 0.54946 0.448802 
-0.345871 0.616871 0.54605 
-0.329999 0.566122 0.369938 
-0.35347 0.587093 0.38162 
-0.387713 0.586029 0.381156 
-0.41088 0.59071 0.36815 
-0.433203 0.597799 0.357874 
-0.450695 0.63044 0.325954 
-0.468564 0.581163 0.4064 
-0.460038 0.596095 0.37681 
-0.475437 0.577582 0.383049 
-0.491518 0.557805 0.396649 
nan nan nan
-0.513789 0.560723 0.339777 
-0.537596 0.558876 0.308038 
-0.559254 0.537926 0.298172 
-0.577847 0.52669 0.286942 
-0.613018 0.555024 0.286031 
-0.597808 0.494213 0.282052 
-0.601752 0.473311 0.28321 
-0.60715 0.450588 0.28535 
-0.597317 0.425733 0.291459 
-0.62852 0.369089 0.294415 
-0.607024 0.31211 0.265218 
-0.680398 0.285041 0.306482 
-0.629598 0.256316 0.262452 
-0.624219 0.226141 0.242105 
-0.748299 0.133974 0.277519 
-0.674122 0.0720356 0.210444 
-0.6038 0.0405599 0.143141 
-0.616667 0.00605212 0.145142 
-0.601876 -0.0233253 0.126798 
-0.582837 -0.0723235 0.0929579 
-0.560869 -0.11208 0.0863281 
-0.648262 -0.147865 0.112832 
-0.612543 -0.204466 0.0927022 
-0.69868 -0.231144 0.0944016 
-0.740702 -0.254984 0.0947431 
-0.696846 -0.249292 0.0698354 
-0.740245 -0.239729 0.0463398 
-0.736984 -0.226852 0.023737 
-0.710497 -0.210584 -0.0212329 
-0.719707 -0.179571 -0.0356716 
-0.853888 -0.176359 0.00419498 
-0.731356 -0.0995464 -0.0621759 
-0.715727 -0.0745811 -0.0994529 
-0.695803 -0.0321839 -0.114144 
-0.74173 -0.0021301 -0.103292 
-0.732612 0.0143213 -0.105553 
-0.646405 0.00993011 -0.138082 
-0.710357 0.0375266 -0.106654 
-0.644285 0.107008 -0.122937 
-0.803388 0.13248 -0.061195 
-0.677951 0.232242 -0.074233 
-0.722521 0.23234 -0.0584121 
-0.696338 0.266027 -0.0627736 
-0.769306 0.271547 -0.0204435 
-0.714575 0.282567 -0.00984289 
-0.748697 0.316024 -0.00585098 
-0.797497 0.340828 0.0296372 
-0.747373 0.405448 0.045339 
nan nan nan
-0.758997 0.464183 0.0774212 
-0.693634 0.475402 0.0611359 
-0.663765 0.506357 0.0650764 
-0.680516 0.506553 0.0428149 
-0.680142 0.517481 0.0309363 
-0.677655 0.53644 0.020637 
-0.709644 0.529644 -0.019772 
-0.686038 0.583565 0.0141862 
-0.673692 0.635843 0.0325942 
-0.667956 0.637898 0.0250361 
-0.661898 0.654713 0.0296053 
-0.671594 0.70817 0.0534651 
-0.644267 0.683263 0.0323298 
-0.634636 0.689206 0.0284935 
-0.61909 0.718444 0.040285 
-0.601844 0.698908 0.0155813 
-0.601736 0.673636 7.05704e-05 
-0.574285 0.678186 -0.017629 
-0.564911 0.710486 -0.0242645 
-0.538557 0.652125 -0.0584757 
-0.531034 0.669632 -0.05993 
-0.51794 0.710912 -0.0648154 
-0.485091 0.61383 -0.087063 
-0.437112 0.697899 -0.0575255 
-0.414931 0.662048 -0.0633835 
-0.40596 0.718501 -0.0450792 
-0.390476 0.717139 -0.0164352 
nan nan nan
-0.338792 0.771551 0.0155247 
-0.306299 0.758909 0.00939996 
-0.297506 0.744217 -0.00171243 
-0.284228 0.697245 -0.0245797 
nan nan nan
-0.243088 0.653496 -0.0394131 
-0.272629 0.583875 -0.0584367 
-0.197067 0.512112 -0.106808 
-0.138544 0.497276 -0.141659 
nan nan nan
-0.0507956 0.478458 -0.204343 
0.0538067 0.483566 -0.24642 
0.147986 0.481204 -0.277448 
nan nan nan
0.222521 0.548949 -0.323517 
0.29176 0.596277 -0.352459 
0.496803 0.61833 -0.37268 
0.397797 0.596578 -0.401557 
0.34835 0.612708 -0.524671 
0.335376 0.660485 -0.525873 
0.420765 0.677288 -0.49374 
0.326031 0.731951 -0.539061 
0.370736 0.760309 -0.473021 
0.333664 0.777697 -0.434466 
0.309438 0.788763 -0.443311 
0.387993 0.817669 -0.455939 
nan nan nan
0.208003 0.889898 -0.444547 
0.296122 0.870873 -0.497236 
0.14169 0.892578 -0.474093 
0.113645 0.894401 -0.482233 
0.0369228 0.952445 -0.465757 
0.0520575 0.920228 -0.43433 
0.00414426 0.962621 -0.385608 
0.0195145 0.96298 -0.41159 
0.0462331 0.933826 -0.40638 
nan nan nan
0.02423 0.959449 -0.362364 
-0.0168364 0.979042 -0.318904 
-0.000240392 0.931794 -0.298566 
0.0594416 0.936108 -0.291356 
0.0845245 0.940811 -0.265172 
0.0447735 0.975865 -0.216617 
0.0549547 0.980836 -0.187117 
0.0754872 0.975698 -0.179944 
0.0915858 0.994085 -0.169563 
0.0984037 0.985802 -0.139497 
0.0928411 0.995966 -0.102804 
0.0925148 0.979891 -0.0646062 
0.0533149 0.999071 -0.0344563 
0.0689731 1.01675 -0.0220421 
nan nan nan
0.145242 0.908272 -0.0093423 
0.111835 0.944034 0.0164876 
0.0686707 0.97837 0.0535834 
0.0821647 0.923692 0.0374509 
0.0558617 0.872395 0.0243326 
0.0221589 0.855804 0.0190872 
-0.0266293 0.854892 0.00645119 
-0.0815488 0.906823 -0.00118508 
-0.121766 0.968757 0.00884802 
-0.100667 0.925596 -0.0277691 
-0.101523 0.921925 -0.0432688 
-0.141139 0.94191 -0.06072 
-0.126951 0.904685 -0.0865217 
-0.13323 0.903598 -0.0937257 
-0.119433 0.865893 -0.113128 
-0.176724 0.93494 -0.109519 
-0.160075 0.887234 -0.122874 
-0.18565 0.900577 -0.122415 
-0.178028 0.875149 -0.140029 
-0.206454 0.881222 -0.148786 
-0.24648 0.895189 -0.162406 
-0.214452 0.861855 -0.178932 
-0.255732 0.867579 -0.205469 
nan nan nan
-0.252441 0.807119 -0.25852 
-0.252849 0.801523 -0.286738 
-0.299791 0.809104 -0.297281 
-0.264379 0.787874 -0.325573 
-0.280726 0.793116 -0.354958 
-0.263748 0.77751 -0.388076 
-0.250819 0.760393 -0.431286 
-0.230897 0.746365 -0.461773 
-0.223599 0.744137 -0.490575 
-0.234601 0.709961 -0.577866 
-0.230982 0.664602 -0.635655 
-0.203368 0.612678 -0.624171 
-0.187253 0.537744 -0.629683 
-0.241984 0.588506 -0.752479 
-0.240672 0.512851 -0.756606 
-0.219283 0.398504 -0.689497 
-0.262422 0.460658 -0.781868 
-0.276831 0.439284 -0.818985 
-0.268953 0.397099 -0.792294 
-0.273823 0.395059 -0.796799 
-0.301725 0.435969 -0.836448 
-0.283211 0.417418 -0.810056 
-0.251457 0.372204 -0.749075 
-0.257741 0.417749 -0.785598 
-0.281172 0.478125 -0.843974 
-0.213546 0.404833 -0.770872 
