-0.589129 -0.162278 -0.104884 
-0.600993 -0.175598 -0.0959225 
-0.598895 -0.245306 -0.0357409 
-0.624794 -0.210396 -0.0888289 
-0.629231 -0.237313 -0.083293 
-0.614186 -0.303909 -0.0479217 
-0.637307 -0.280272 -0.0859713 
-0.63445 -0.296936 -0.0842798 
-0.63067 -0.319736 -0.0832034 
-0.635202 -0.329371 -0.0881375 
-0.609522 -0.346695 -0.116169 
-0.631376 -0.428143 -0.165707 
-0.568112 -0.389861 -0.191219 
-0.576879 -0.403022 -0.211194 
-0.569774 -0.401882 -0.222091 
-0.599909 -0.448333 -0.251934 
-0.57555 -0.445264 -0.263892 
-0.567756 -0.459671 -0.292068 
-0.535814 -0.437517 -0.291372 
-0.547479 -0.449418 -0.302315 
-0.517672 -0.434369 -0.304746 
-0.51323 -0.440631 -0.32847 
-0.501712 -0.451722 -0.346783 
-0.522265 -0.460582 -0.365341 
-0.538135 -0.467851 -0.385789 
-0.559368 -0.463115 -0.406502 
-0.554919 -0.425165 -0.408484 
-0.585786 -0.431423 -0.421945 
nan nan nan
-0.616745 -0.411528 -0.428394 
-0.585036 -0.377666 -0.411849 
-0.57514 -0.359882 -0.40423 
-0.598823 -0.363535 -0.410465 
-0.594231 -0.34719 -0.406585 
-0.589829 -0.315072 -0.396745 
-0.616855 -0.329873 -0.404054 
-0.64611 -0.342388 -0.414087 
-0.607729 -0.284292 -0.381605 
-0.655308 -0.296953 -0.395378 
-0.601044 -0.243644 -0.359073 
-0.601523 -0.253607 -0.387062 
nan nan nan
-0.584833 -0.248539 -0.421148 
-0.54223 -0.221392 -0.427235 
-0.562021 -0.222481 -0.471799 
-0.547883 -0.200825 -0.479173 
nan nan nan
-0.52915 -0.169723 -0.50436 
-0.569398 -0.171826 -0.569858 
-0.492843 -0.12638 -0.544621 
-0.470866 -0.103936 -0.572062 
-0.45683 -0.0844003 -0.59479 
-0.465435 -0.0432232 -0.596572 
-0.474071 -0.021205 -0.587332 
-0.459575 -0.00346569 -0.600166 
-0.453986 0.0167215 -0.581857 
-0.44383 0.033911 -0.57335 
-0.445251 0.0764802 -0.600345 
-0.398179 0.0712348 -0.570733 
-0.38798 0.0819515 -0.581531 
-0.369989 0.0897511 -0.582609 
-0.358291 0.103408 -0.592996 
-0.346609 0.121736 -0.617243 
-0.347277 0.134552 -0.642632 
-0.343128 0.142836 -0.649256 
-0.341318 0.14725 -0.652571 
-0.355031 0.160195 -0.68333 
-0.336853 0.143298 -0.688533 
-0.282894 0.110279 -0.65624 
-0.315483 0.127469 -0.711877 
-0.297689 0.116266 -0.714722 
-0.289899 0.112175 -0.715153 
-0.283645 0.109248 -0.733281 
-0.259307 0.0967521 -0.730657 
-0.252062 0.093654 -0.738163 
-0.253339 0.0885733 -0.750691 
-0.227038 0.0799639 -0.722754 
-0.215874 0.0819641 -0.727135 
-0.201184 0.0904024 -0.745554 
-0.152802 0.0747336 -0.681154 
-0.129716 0.0878897 -0.731137 
-0.0918687 0.0847218 -0.737309 
-0.0804654 0.0966634 -0.756067 
-0.0438243 0.0885568 -0.763861 
-0.00766407 0.0894662 -0.774108 
0.0256284 0.0819451 -0.784541 
0.0891547 0.0423185 -0.852162 
0.0898488 0.061008 -0.770072 
0.107396 0.0218772 -0.777941 
0.109218 -0.00617763 -0.776338 
0.136794 -0.0254188 -0.771266 
nan nan nan
0.200177 -0.0241352 -0.826786 
0.274309 -0.0663393 -0.934293 
0.280696 -0.0695391 -0.796837 
0.250994 -0.0821713 -0.848724 
0.217309 -0.0775352 -0.810783 
0.191052 -0.0832217 -0.819342 
0.173536 -0.0920887 -0.834309 
0.152447 -0.0783001 -0.780732 
0.143256 -0.0919375 -0.802671 
0.132638 -0.122284 -0.81779 
0.115861 -0.148664 -0.852464 
0.0456176 -0.142521 -0.829833 
0.056322 -0.199392 -0.945317 
0.00804435 -0.179656 -0.854739 
-0.0290924 -0.169468 -0.819127 
-0.0282282 -0.201425 -0.855309 
-0.0546459 -0.185078 -0.808027 
-0.0790523 -0.214966 -0.824037 
-0.108208 -0.197505 -0.757639 
-0.120078 -0.193542 -0.715413 
-0.135564 -0.171423 -0.667861 
-0.140824 -0.218131 -0.675689 
-0.150286 -0.31083 -0.735592 
-0.162229 -0.329773 -0.702183 
-0.17427 -0.270913 -0.609274 
-0.171906 -0.312428 -0.668709 
-0.171491 -0.346027 -0.720437 
nan nan nan
-0.223368 -0.350934 -0.662665 
-0.244247 -0.376763 -0.652277 
-0.248728 -0.354135 -0.59732 
-0.251653 -0.391703 -0.601653 
nan nan nan
-0.246747 -0.43329 -0.586368 
-0.234383 -0.404744 -0.527903 
-0.200201 -0.442333 -0.52385 
nan nan nan
-0.143721 -0.502375 -0.547045 
-0.129321 -0.511617 -0.516849 
-0.0569173 -0.573424 -0.591376 
-0.0748331 -0.503953 -0.47951 
-0.0399607 -0.570937 -0.592682 
-0.0290765 -0.484289 -0.483803 
0.000765971 -0.526341 -0.487483 
nan nan nan
0.0871438 -0.530661 -0.435071 
nan nan nan
0.140744 -0.60086 -0.485421 
0.155425 -0.611395 -0.473325 
0.191675 -0.594128 -0.450043 
0.217627 -0.689377 -0.485676 
0.239066 -0.631868 -0.4421 
0.263708 -0.646716 -0.43159 
0.278066 -0.575153 -0.408208 
0.317124 -0.603778 -0.388435 
0.308977 -0.694725 -0.377515 
0.358443 -0.596952 -0.357618 
0.386057 -0.602778 -0.331823 
0.411668 -0.617756 -0.300274 
0.455044 -0.626298 -0.27608 
0.436478 -0.633479 -0.250568 
0.424782 -0.631359 -0.228453 
0.435765 -0.627321 -0.199 
0.46503 -0.660339 -0.183017 
0.480204 -0.645687 -0.162129 
0.500722 -0.690662 -0.168331 
0.502916 -0.684707 -0.148741 
0.488116 -0.682891 -0.123198 
0.474632 -0.689561 -0.0938679 
0.450712 -0.635538 -0.0501892 
0.437691 -0.645518 -0.0245876 
0.443502 -0.704311 -0.00261204 
0.425377 -0.703618 0.0241835 
0.415704 -0.733548 0.0610465 
0.40442 -0.734438 0.0962857 
0.386548 -0.703099 0.131728 
0.398625 -0.759619 0.123901 
0.385366 -0.732569 0.135342 
0.368155 -0.721207 0.149902 
0.344249 -0.679909 0.185846 
0.343437 -0.722777 0.179975 
0.327392 -0.723899 0.194595 
0.280338 -0.700739 0.231244 
0.213622 -0.720069 0.253718 
0.228182 -0.680246 0.275769 
0.217317 -0.61869 0.357028 
0.192871 -0.527527 0.449932 
0.158902 -0.583947 0.375749 
0.114986 -0.548389 0.332487 
0.119005 -0.469118 0.357483 
0.131117 -0.447285 0.342206 
0.132466 -0.404802 0.349846 
0.13382 -0.384298 0.280087 
0.154664 -0.268375 0.328149 
0.192377 -0.216571 0.271764 
0.243839 -0.121377 0.243521 
0.305761 -0.0263362 0.235762 
0.283515 -0.0718764 0.113028 
0.289654 -0.0771086 0.0631468 
0.280587 -0.0230202 0.0623005 
0.29314 0.0157481 0.124065 
0.277523 0.0347183 0.0793161 
0.271142 0.0170356 -0.0060502 
0.273691 0.0248289 -0.0589278 
0.282463 0.039537 -0.102517 
0.29121 0.0571635 -0.0832285 
0.316826 0.0656065 -0.114135 
0.339277 0.0726494 -0.139877 
0.371564 0.0798377 -0.168542 
0.402591 0.0930047 -0.200512 
0.420081 0.101033 -0.222861 
0.45684 0.126462 -0.257295 
0.427568 0.176541 -0.31276 
0.420326 0.22261 -0.359572 
0.425558 0.265285 -0.425691 
nan nan nan
0.436498 0.334732 -0.520391 
0.434634 0.287622 -0.535419 
0.482803 0.309049 -0.583678 
0.483959 0.251553 -0.580997 
0.509845 0.24629 -0.597648 
0.573105 0.218819 -0.5958 
0.592169 0.188304 -0.580983 
0.601476 0.14876 -0.598873 
0.632948 0.13756 -0.618036 
0.642778 0.102773 -0.595773 
0.676184 0.0928605 -0.583986 
0.687939 0.0717086 -0.570176 
0.673558 0.0362714 -0.568435 
0.598235 -0.066694 -0.55712 
0.675912 -0.0183793 -0.568318 
0.692906 -0.0235992 -0.586926 
0.690439 -0.0703975 -0.56493 
0.721187 -0.0647301 -0.552148 
0.714411 -0.0721517 -0.538508 
0.728176 -0.0843381 -0.518765 
0.729813 -0.0727379 -0.519208 
0.757013 -0.0532285 -0.516978 
0.760342 -0.0668835 -0.499647 
0.7522 -0.104608 -0.482211 
0.76736 -0.0819082 -0.479767 
0.787302 -0.0739408 -0.47861 
0.76378 -0.114497 -0.469229 
0.776141 -0.0903254 -0.450087 
0.777774 -0.0873477 -0.424615 
0.771806 -0.117705 -0.413858 
0.813531 -0.185558 -0.400823 
0.754447 -0.152203 -0.3606 
0.809604 -0.217577 -0.358516 
0.753021 -0.186606 -0.31487 
0.75089 -0.192323 -0.286023 
0.742764 -0.197306 -0.266975 
0.75649 -0.221332 -0.247268 
0.803068 -0.271408 -0.247565 
0.746825 -0.248327 -0.172688 
0.76226 -0.28167 -0.130691 
0.749295 -0.301676 -0.092679 
0.753884 -0.335453 -0.0569778 
0.740789 -0.357316 -0.0392525 
0.761518 -0.366179 0.00159078 
0.72799 -0.373861 0.0278858 
0.779432 -0.397621 0.0921214 
0.703083 -0.406241 0.128696 
0.732719 -0.422333 0.176691 
0.683913 -0.426465 0.194732 
0.704704 -0.431552 0.230372 
0.701229 -0.436521 0.249461 
0.712964 -0.44705 0.272527 
0.673005 -0.440642 0.278269 
0.739903 -0.456641 0.285875 
0.712866 -0.456525 0.285801 
0.748947 -0.471857 0.291769 
0.715063 -0.482728 0.28514 
0.68954 -0.488059 0.285185 
0.761774 -0.505886 0.298784 
0.708061 -0.510303 0.264291 
0.719163 -0.531119 0.260102 
0.708714 -0.526059 0.234506 
0.728646 -0.556339 0.21884 
0.760863 -0.570877 0.22841 
0.729091 -0.5635 0.19855 
0.757597 -0.58337 0.204152 
0.792777 -0.594354 0.210614 
0.75542 -0.595475 0.176674 
0.774403 -0.595648 0.16408 
0.773173 -0.588915 0.138812 
0.775182 -0.585075 0.114091 
0.81173 -0.587933 0.108519 
0.846297 -0.593787 0.108049 
0.798384 -0.583467 0.0776955 
0.790354 -0.580849 0.0566278 
0.790092 -0.576669 0.0451831 
0.807942 -0.572791 0.0272442 
0.805331 -0.562046 -0.00246776 
0.867543 -0.575737 0.00372086 
0.812809 -0.548708 -0.0362194 
0.837535 -0.547355 -0.0557456 
0.813123 -0.541117 -0.0863298 
0.878254 -0.540097 -0.0787567 
0.828215 -0.49959 -0.0912647 
nan nan nan
0.953858 -0.518823 -0.0809237 
0.945782 -0.454558 -0.0664199 
0.955175 -0.454614 -0.0413279 
0.996964 -0.42548 -0.0129634 
1.00082 -0.41145 0.000991069 
1.07576 -0.410013 0.00597742 
1.00645 -0.370564 0.0410726 
1.02388 -0.378751 0.0418546 
1.01293 -0.343253 0.0592289 
1.03774 -0.32847 0.0200288 
1.13806 -0.343142 -0.0478838 
1.01425 -0.25739 0.0245404 
1.03626 -0.250324 -0.0384965 
0.999597 -0.24737 -0.0709824 
1.09701 -0.287963 -0.165417 
1.02052 -0.219242 -0.137 
1.08234 -0.210948 -0.197806 
0.981633 -0.142878 -0.130473 
0.988249 -0.132305 -0.187815 
1.05725 -0.166163 -0.243845 
0.961575 -0.0886785 -0.210812 
0.961661 -0.0604522 -0.225497 
0.918295 -0.00671701 -0.24065 
0.898636 0.0199984 -0.256349 
0.877135 0.0530126 -0.268378 
0.876664 0.062355 -0.240127 
0.871608 0.0690682 -0.240944 
0.863625 0.105981 -0.232178 
0.861463 0.148873 -0.245403 
0.850441 0.110773 -0.144814 
0.856542 0.17604 -0.131637 
0.86623 0.245615 -0.102922 
nan nan nan
0.842891 0.265248 0.0153982 
0.836885 0.331217 0.000648188 
0.827893 0.430376 0.0452464 
0.818511 0.46879 0.0793317 
0.789469 0.493087 0.10725 
0.746049 0.513621 0.143142 
0.723843 0.517605 0.169917 
0.681126 0.512856 0.181806 
0.704945 0.534592 0.205725 
0.702017 0.535543 0.239419 
0.669187 0.518389 0.285998 
0.71546 0.512992 0.293454 
0.692617 0.448057 0.310086 
0.716171 0.509669 0.300221 
0.719565 0.515445 0.306156 
0.710716 0.533065 0.316493 
0.712691 0.570182 0.325628 
0.721654 0.591924 0.323428 
0.758377 0.62774 0.318581 
0.773048 0.657622 0.321409 
0.746903 0.664419 0.324547 
0.747915 0.699101 0.330162 
0.760226 0.750815 0.354519 
0.742881 0.750459 0.351416 
0.717757 0.756719 0.350942 
0.717796 0.774588 0.361353 
0.722161 0.812854 0.387198 
0.696868 0.786423 0.369184 
0.660859 0.759377 0.347705 
0.644147 0.783628 0.360347 
0.636797 0.777099 0.35857 
nan nan nan
0.621859 0.761441 0.346544 
0.599361 0.737019 0.323844 
nan nan nan
0.61548 0.766335 0.35799 
nan nan nan
0.571413 0.760341 0.359809 
0.549329 0.738195 0.339871 
0.564594 0.808013 0.395247 
0.498259 0.728959 0.339579 
0.490789 0.76203 0.375916 
nan nan nan
0.468376 0.810804 0.434171 
0.42507 0.768771 0.423626 
0.377668 0.707778 0.38772 
0.386042 0.716663 0.43045 
0.440896 0.766506 0.50932 
0.519619 0.819501 0.622803 
0.424748 0.733146 0.556964 
0.402965 0.686268 0.567279 
0.517943 0.79941 0.677948 
0.475129 0.680998 0.656454 
0.497172 0.640398 0.689605 
0.504189 0.568589 0.733951 
0.57726 0.554201 0.821474 
0.44234 0.447253 0.74628 
0.423843 0.385151 0.787241 
0.40268 0.347375 0.80963 
0.34799 0.305114 0.847104 
0.322335 0.268212 0.864517 
0.321673 0.255984 0.857903 
0.263639 0.259809 0.89511 
0.239568 0.264916 0.90376 
0.228088 0.261464 0.899327 
0.237155 0.246749 0.873171 
0.163469 0.269585 0.931292 
0.183888 0.267986 0.908148 
0.157728 0.275052 0.903555 
0.143088 0.279499 0.902163 
0.13788 0.282389 0.892402 
nan nan nan
0.0859697 0.290075 0.897725 
0.0865645 0.288321 0.868388 
0.05445 0.287116 0.866412 
0.0949881 0.291211 0.80291 
0.00724333 0.280383 0.851168 
-0.00917383 0.300852 0.820559 
-0.0203703 0.317303 0.797405 
-0.0685678 0.325351 0.771428 
-0.014705 0.369249 0.746359 
0.0319096 0.418641 0.732449 
-0.0760832 0.365603 0.727755 
-0.0865313 0.375759 0.716876 
-0.0934577 0.400297 0.696613 
-0.0669006 0.495879 0.699699 
-0.153046 0.411094 0.647535 
-0.125635 0.486165 0.648912 
-0.0907461 0.573214 0.66403 
-0.19657 0.514589 0.580286 
-0.1993 0.555628 0.558992 
-0.214868 0.535212 0.523513 
-0.249711 0.538557 0.479197 
-0.193235 0.599147 0.500246 
-0.211939 0.570817 0.432807 
-0.192132 0.575209 0.429183 
-0.136146 0.599527 0.447801 
-0.116891 0.58821 0.437214 
-0.0743709 0.598038 0.409064 
-0.0688101 0.598856 0.363285 
-0.0446531 0.621773 0.334791 
-0.000580724 0.656037 0.355863 
-0.0169134 0.628649 0.324604 
0.00558848 0.621219 0.311757 
0.0381291 0.746594 0.344871 
-0.0902905 0.646052 0.285279 
-0.032951 0.803006 0.331249 
-0.149749 0.714479 0.271037 
-0.180746 0.729754 0.263528 
-0.158499 0.829584 0.268919 
-0.256026 0.729898 0.240581 
-0.259079 0.744851 0.220684 
-0.271804 0.750007 0.196678 
-0.285197 0.756734 0.178781 
-0.296896 0.765441 0.162479 
-0.327743 0.773655 0.160311 
-0.26843 0.790791 0.142872 
-0.288019 0.779039 0.148145 
-0.284641 0.780511 0.132942 
-0.275483 0.784167 0.113809 
nan nan nan
-0.312 0.7746 0.0897674 
-0.33751 0.780747 0.0669159 
-0.336312 0.773501 0.040388 
-0.346116 0.770941 0.0162405 
-0.368214 0.788331 0.00728924 
-0.338761 0.760642 -0.012881 
-0.326862 0.75492 -0.0234686 
-0.313677 0.750314 -0.0360943 
-0.295142 0.744773 -0.0521261 
-0.265512 0.745123 -0.101813 
-0.247201 0.716227 -0.122349 
-0.239559 0.773345 -0.174303 
-0.229865 0.72152 -0.179977 
-0.203969 0.698485 -0.206422 
-0.190245 0.766471 -0.312777 
-0.1446 0.670067 -0.359156 
-0.107049 0.59829 -0.349525 
-0.0888685 0.593134 -0.394922 
-0.0714681 0.571298 -0.417753 
-0.067748 0.533543 -0.434044 
-0.0308324 0.526716 -0.450554 
-0.0548706 0.577518 -0.514157 
-0.0344868 0.556347 -0.540322 
-0.0714089 0.574948 -0.608647 
-0.0811874 0.582614 -0.632507 
-0.0906212 0.547905 -0.621216 
-0.120855 0.53496 -0.638895 
-0.133374 0.515355 -0.632866 
-0.146009 0.480534 -0.613838 
-0.16665 0.485615 -0.593288 
-0.21683 0.560293 -0.658077 
-0.206681 0.463805 -0.551833 
-0.232925 0.424585 -0.553778 
-0.26263 0.418322 -0.526496 
-0.301449 0.451815 -0.53885 
-0.304295 0.439785 -0.523659 
-0.281328 0.384545 -0.481548 
-0.317361 0.445636 -0.496032 
-0.328892 0.439509 -0.431984 
-0.384644 0.553404 -0.474103 
-0.396442 0.508533 -0.356892 
-0.411531 0.550783 -0.394171 
-0.432911 0.567599 -0.358856 
-0.458868 0.637931 -0.382741 
-0.43924 0.605315 -0.328445 
-0.465997 0.636405 -0.317605 
-0.48104 0.687475 -0.309916 
-0.498182 0.671532 -0.232837 
nan nan nan
-0.534991 0.708912 -0.18914 
-0.517489 0.670659 -0.159217 
-0.52179 0.665603 -0.127462 
-0.534513 0.658492 -0.135403 
-0.541921 0.650409 -0.129636 
-0.557067 0.639358 -0.114084 
-0.576154 0.618147 -0.127284 
-0.586709 0.636829 -0.0743338 
-0.602162 0.64732 -0.039783 
-0.601791 0.641832 -0.0393749 
-0.605759 0.645955 -0.0245385 
-0.617827 0.671692 0.00730602 
-0.611036 0.644277 0.00262921 
-0.609541 0.64097 0.00698975 
-0.607958 0.646608 0.0304879 
-0.605497 0.622075 0.0195411 
-0.601323 0.606151 0.0173712 
-0.601896 0.586045 0.030057 
-0.605395 0.579095 0.0482773 
-0.602822 0.536262 0.0417196 
-0.598949 0.534919 0.0492511 
-0.587349 0.521439 0.05605 
-0.622591 0.499167 0.0645172 
-0.568881 0.485679 0.0940131 
-0.589789 0.479748 0.126985 
-0.546326 0.468616 0.127607 
-0.534608 0.478855 0.149405 
nan nan nan
-0.489719 0.459205 0.195363 
-0.498876 0.454152 0.222848 
-0.509332 0.458422 0.218481 
-0.550627 0.456584 0.23855 
nan nan nan
-0.608191 0.468382 0.266946 
-0.642331 0.488854 0.267589 
-0.741679 0.479443 0.312737 
-0.794068 0.478546 0.33385 
nan nan nan
-0.871198 0.423967 0.329302 
-0.922049 0.397324 0.407333 
-0.98503 0.401047 0.500868 
nan nan nan
-0.977197 0.300707 0.558852 
-0.972543 0.251883 0.622073 
-1.15436 0.218852 0.727398 
-1.06759 0.179342 0.729952 
-0.996028 0.108881 0.745658 
-0.96955 0.0685474 0.727289 
-1.06968 0.0730405 0.699066 
-0.995584 0.0263836 0.642832 
-1.06385 0.00442288 0.603284 
-1.02599 0.00347247 0.552761 
-0.974952 -0.00592788 0.542547 
-1.0005 -0.0281344 0.539419 
nan nan nan
-0.807504 -0.0314132 0.494565 
-0.892878 -0.0293267 0.50825 
-0.743803 -0.0465813 0.458883 
-0.72691 -0.0424796 0.447883 
-0.645671 -0.0639676 0.401693 
-0.666446 -0.0145111 0.424428 
-0.607002 0.00100845 0.398908 
-0.612718 -0.0100825 0.396817 
-0.645453 0.0216784 0.426959 
nan nan nan
-0.593576 0.0467473 0.422984 
-0.560027 0.0683598 0.395734 
-0.562909 0.100761 0.415836 
-0.579162 0.0974166 0.469009 
-0.565695 0.106865 0.501264 
-0.506731 0.113996 0.481986 
-0.488703 0.127715 0.48936 
-0.492614 0.130204 0.513304 
-0.466336 0.130405 0.515649 
-0.445095 0.150792 0.518787 
-0.413724 0.16138 0.51609 
-0.403921 0.19016 0.527506 
-0.379686 0.198921 0.497745 
-0.36747 0.209268 0.517951 
nan nan nan
-0.416595 0.249472 0.590999 
-0.375781 0.250255 0.558896 
-0.343319 0.258695 0.533506 
-0.377044 0.273131 0.545461 
-0.415297 0.28832 0.519051 
-0.429718 0.296696 0.484879 
-0.43827 0.295994 0.432499 
-0.401621 0.27633 0.379321 
-0.362753 0.264518 0.353366 
-0.398675 0.261821 0.360698 
-0.407995 0.254593 0.356064 
-0.402749 0.246248 0.329114 
-0.42982 0.247211 0.331621 
-0.43316 0.245077 0.324865 
-0.470975 0.248678 0.331997 
-0.427331 0.236695 0.290501 
-0.461239 0.243393 0.301445 
-0.450206 0.242791 0.280199 
-0.47048 0.24194 0.283093 
-0.468384 0.238664 0.2599 
-0.459636 0.23647 0.229826 
-0.493122 0.228099 0.238695 
-0.493881 0.219917 0.200159 
nan nan nan
-0.554483 0.206305 0.193852 
-0.564829 0.199063 0.171524 
-0.556303 0.203147 0.13825 
-0.592274 0.188734 0.149925 
-0.598088 0.172511 0.130802 
-0.624694 0.155338 0.118785 
-0.655491 0.125442 0.102553 
-0.671287 0.0909083 0.0971955 
-0.673708 0.0680187 0.0872719 
-0.679044 0.0113351 0.0605273 
-0.669788 -0.0399022 0.0394577 
-0.656798 -0.0696664 0.0548427 
-0.612925 -0.136175 0.0648912 
-0.621022 -0.0889664 -0.0431693 
-0.588255 -0.132288 -0.0439837 
-0.528806 -0.229938 0.0355935 
-0.54938 -0.170539 -0.0549456 
-0.535171 -0.188869 -0.0817191 
-0.51559 -0.218126 -0.0652775 
-0.511544 -0.212579 -0.0675325 
-0.519812 -0.183179 -0.0990281 
-0.517883 -0.196809 -0.0839288 
-0.515912 -0.225778 -0.0411941 
-0.541382 -0.189824 -0.0833842 
-0.556806 -0.152641 -0.120329 
-0.55017 -0.215101 -0.0614215 
