-165.009064 29.214235 9.057827
-164.925781 29.033417 8.699115
-164.834198 28.715942 8.488570
-164.371170 28.108471 8.608361
-163.980515 27.495426 8.943506
-163.995224 27.231417 9.251404
-164.115189 27.074327 9.483642
-164.360275 27.077856 9.804165
-164.591110 27.302315 10.012531
-165.048904 27.763422 10.070248
-165.352448 28.391399 9.678819
-165.510651 28.556705 9.030814
-165.467545 28.591272 8.909892
-165.404861 28.483408 8.689368
-165.287384 28.271603 8.509853
-164.908417 27.809956 8.454336
-164.572617 27.176493 8.870429
-164.557617 26.735147 9.369416
-164.788818 26.621723 9.807539
-164.980286 26.709972 9.945022
-165.150757 26.771082 10.106389
-165.376007 27.021080 10.074745
-165.762100 27.611055 9.703697
-166.069916 27.907545 8.922750
-165.891022 27.895769 8.617528
-165.799347 27.844545 8.513126
-165.884735 27.605536 8.384419
-165.691315 27.620176 8.411484
-165.271072 26.983204 8.710211
-164.982819 26.391441 9.271051
-165.523682 26.311657 10.186799
-165.653732 26.442545 10.213466
-165.615295 26.354530 10.122193
-165.723007 26.400227 10.096850
-165.975067 26.683371 9.832955
-165.845001 26.509966 8.783237
-166.205292 26.859581 8.433519
-166.384628 27.147352 8.372322
-166.338608 27.034893 8.388910
-166.184814 27.064007 8.355052
-166.581253 27.092636 8.642513
-166.818588 26.835649 9.653281
-166.829208 26.439905 10.166125
-166.865662 26.216614 10.418998
-166.595245 26.158031 10.414871
-166.574249 26.077770 10.246818
-166.346863 25.955965 10.005901
-166.124817 25.766270 9.213680
-166.330963 25.944307 8.614354
-166.499588 26.030890 8.334034
-166.493210 26.128529 8.282165
-166.496750 26.247391 8.261948
-166.656128 26.373325 8.317725
-167.268997 26.441242 8.893804
-167.569962 26.335596 9.761172
-167.563507 26.067619 10.271480
-167.393127 26.021824 10.396437
-167.255051 25.885649 10.396514
-167.321609 25.911366 10.243262
-166.946625 25.508579 10.054532
-166.594467 25.223690 9.093383
-166.863510 25.238152 8.681605
-167.018768 25.417091 8.443743
-166.922699 25.365923 8.422207
-166.706299 25.037949 8.737371
-166.844009 24.842480 8.863106
-167.999573 25.674253 8.993620
-168.293900 25.470284 9.830328
-168.318832 25.428080 10.065980
-168.078873 25.078232 10.337155
-168.123627 25.254280 10.212939
-168.155838 25.400175 9.901091
-168.045074 25.339075 9.558977
-167.072327 24.505194 9.255972
-167.078598 24.495956 9.080626
-167.254822 24.355318 9.013729
-167.732437 24.802395 8.529195
-167.818130 24.930948 8.517097
-167.313568 24.330168 9.346066
-167.895065 24.191719 9.915718
-168.262009 24.196163 10.114857
-168.829147 24.695898 9.769852
-168.908234 24.524446 9.928623
-168.527618 24.362411 10.280975
-168.057846 24.027622 9.844708
-168.011749 23.915453 9.359540
-168.394867 24.352135 8.560214
-168.188049 24.340971 8.364298
-168.168716 24.273926 8.174582
-167.839996 23.667719 8.718500
-167.906052 23.690399 8.942151
-168.829102 24.318335 9.104427
-169.228485 24.317524 9.489234
-169.470184 24.124842 9.794847
-169.097458 23.791759 10.256177
-168.748901 23.322910 9.970018
-168.670074 23.305075 9.652688
-169.133850 24.218967 9.107323
-169.003693 24.088228 8.450480
-168.659546 23.774973 8.004996
-168.350143 23.180439 8.221460
-168.355820 23.162350 8.416840
-168.477417 23.229488 8.736140
-169.361374 23.890387 8.777879
-169.670410 23.790894 9.103692
-169.684158 23.339319 9.768149
-169.281342 22.888138 9.765358
-169.357208 22.877001 9.742554
-169.272171 22.906446 9.463985
-169.747116 23.584448 8.933167
-169.649811 23.718304 8.581351
-169.238434 23.230877 7.893715
-168.849350 22.830221 8.061704
-168.871460 22.756260 8.096071
-168.998550 22.701679 8.280517
-169.905792 23.428967 8.298287
-170.057175 23.369631 8.539969
-170.387344 23.309219 9.189523
-169.698853 22.350086 9.570804
-169.730148 22.402258 9.573565
-169.627411 22.292324 9.261131
-170.281082 23.065300 8.918302
-170.315186 23.161163 8.656691
-170.169449 23.171059 8.041765
-169.617477 22.486435 7.676472
-169.354355 22.304647 7.778854
-169.529144 22.183561 7.813585
-170.377731 22.754927 7.959293
-170.509613 22.869902 8.191350
-170.763733 22.721689 8.502292
-170.750916 22.337967 9.248363
-170.180374 21.761209 9.291936
-170.163925 21.726046 9.259124
-170.095291 21.920008 9.117870
-170.838806 22.439537 8.865492
-170.783585 22.540594 8.286698
-170.745285 22.477600 7.975882
-169.981659 21.808947 7.502301
-169.874649 21.673712 7.639295
-169.956009 21.646940 7.680541
-170.128326 21.546095 7.943316
-171.079742 22.148525 8.317344
-171.240036 22.087364 8.501773
-171.337418 21.793900 8.848795
-170.759857 21.003990 8.872040
-170.556091 21.154554 8.902025
-170.650696 21.098076 8.735757
-170.529388 21.223799 8.463984
-171.202896 21.865002 7.893058
-171.227707 21.862003 7.685419
-171.190170 21.905739 7.559590
-171.012955 21.714911 7.323018
-170.575928 21.201918 7.613056
-170.745468 20.859068 7.895795
-170.872284 20.799032 8.109878
-171.687897 21.549017 8.583430
-171.759094 21.418680 8.588232
-171.906189 21.254860 8.696989
-171.791901 21.243647 8.722944
-171.410324 20.855688 8.646385
-171.150452 20.544905 8.200577
-171.203293 20.411739 7.874311
-171.279221 20.486151 7.667654
-171.825424 21.076557 7.528019
-171.939117 21.180084 7.454206
-172.043488 20.952950 7.561055
-172.016464 20.775223 7.703937
-171.933594 20.205225 8.149792
-172.103622 20.174940 8.356056
-172.165878 20.209681 8.334565
-172.286377 20.218212 8.322262
-172.452072 20.304552 8.228560
-172.588089 20.394184 8.193546
-172.595779 20.516014 8.028345
-172.486511 20.320711 7.902156
-172.249542 19.846390 7.714277
-172.168152 19.791046 7.619449
-172.320892 19.672394 7.591801
-172.580017 19.604820 7.482364
-172.829086 19.684603 7.392378
-173.084503 19.861813 7.366498
-173.168289 19.886221 7.277610
-173.219482 19.884232 7.249822
-173.245590 19.783308 7.170335
-173.056442 19.675346 7.198932
-172.932846 19.528925 7.118960
-172.831924 19.430538 7.002950
-172.927429 19.414394 6.824193
-173.146179 19.581881 6.710398
-173.296188 19.714050 6.508435
-173.387390 19.814161 6.346116
-173.376266 19.810650 6.285715
-173.186844 19.580175 6.098416
-173.116364 19.498899 6.027356
-172.906418 19.314428 5.944410
-172.965012 19.378117 5.860333
-172.998001 19.298166 5.742338
-173.071533 19.419437 5.794060
-173.230286 19.583202 5.717576
-173.338287 19.705173 5.704287
-173.390854 19.837296 5.488511
-173.288071 19.928518 5.374961
-173.184265 19.971027 5.145131
-173.091522 19.863773 5.018106
-173.229202 19.716022 4.908024
-173.332245 19.656200 4.740390
-173.433289 19.650276 4.661945
-173.610474 19.687309 4.556520
-173.695786 19.622917 4.516333
-173.777191 19.809713 4.436487
-173.665115 19.849279 4.468588
-173.536728 19.988853 4.360415
-173.409424 20.108805 4.230010
-173.298553 20.210775 4.120930
-173.484268 20.374115 3.892829
-173.595230 20.336973 3.832363
-173.723297 20.356014 3.725153
-173.854782 20.329737 3.662802
-173.972260 20.379843 3.605310
-174.124207 20.483088 3.477505
-174.150925 20.592791 3.399633
-173.923111 20.605673 3.487146
-173.967484 20.664522 3.405901
-173.955017 20.772924 3.264949
-174.128555 20.928034 3.107929
-174.181747 20.960114 3.075680
-174.259171 20.994900 3.021977
-174.321289 21.068113 2.943137
-174.417587 21.151129 2.851763
-174.601288 21.260899 2.706321
-174.574173 21.364813 2.646678
-174.544815 21.521479 2.649987
-174.507034 21.562767 2.630067
-174.442825 21.728138 2.683816
-174.363663 21.871656 2.609829
-174.533142 21.674807 2.504962
-174.738235 21.683046 2.383927
-174.844589 21.776510 2.293705
-174.999161 21.903845 2.145195
-175.118988 22.051622 2.031056
-175.207138 22.026869 1.978135
-175.273224 22.236370 1.854876
-175.161911 22.405172 1.903057
-175.067917 22.570267 1.973452
-174.828140 22.868137 2.202772
-174.888596 22.955503 2.133238
-174.960251 22.988905 2.101815
-175.020966 23.105749 2.024947
-175.140869 22.816761 1.906594
-175.360611 22.757528 1.712587
-175.571503 22.964243 1.520640
-175.620361 22.980051 1.478404
-175.772293 23.160242 1.327374
-175.787033 23.265373 1.296044
-175.686829 23.486858 1.360697
-175.562759 23.738468 1.492235
-175.381958 23.903225 1.667530
-175.278671 24.043154 1.747815
-175.270630 24.153229 1.756293
-175.394440 24.258078 1.629337
-175.576050 24.155602 1.467512
-175.794952 24.035027 1.262183
-175.975159 23.993652 1.099338
-176.166977 24.174547 0.914476
-176.193085 24.287560 0.855555
-176.211472 24.461369 0.841409
-176.178116 24.591486 0.841407
-176.002991 24.777073 1.000595
-175.854935 24.973988 1.120188
-175.538208 25.170996 1.396810
-175.600784 25.279779 1.344102
-175.655777 25.356987 1.258246
-175.760788 25.408224 1.167186
-175.918198 25.312536 1.007426
-176.226013 25.131104 0.709226
-176.396606 25.198574 0.553094
-176.484726 25.398558 0.449004
-176.562042 25.571609 0.320724
-176.475510 25.684048 0.397039
-176.364380 25.926855 0.423217
-176.162750 26.092751 0.589996
-175.937912 26.279566 0.778783
-175.785767 26.389618 0.891542
-175.743103 26.521862 0.890505
-175.746613 26.535868 0.884187
-175.943787 26.553322 0.711989
-176.250305 26.347515 0.405053
-176.496262 26.416901 0.135038
-176.537064 26.511673 0.059733
-176.644577 26.689564 -0.128903
-176.623230 26.783955 -0.164961
-176.505188 26.935663 -0.129517
-176.294861 27.091429 0.049673
-176.044220 27.362118 0.235467
-175.858261 27.498589 0.352660
-175.730103 27.666424 0.279567
-175.719574 27.707108 0.351675
-175.783356 27.724470 0.254479
-176.008896 27.645573 0.037796
-176.350784 27.546204 -0.333812
-176.490875 27.540674 -0.453518
-176.490372 27.631874 -0.560059
-176.518295 27.698282 -0.616590
-176.410782 27.867001 -0.735630
-176.264786 28.012669 -0.684090
-176.051865 28.210342 -0.501312
-175.747894 28.463781 -0.315240
-175.584885 28.647488 -0.319611
-175.508072 28.719660 -0.364598
-175.507202 28.774981 -0.427984
-175.641296 28.702414 -0.514831
-175.892456 28.618937 -0.765714
-176.082443 28.546782 -1.053437
-176.238464 28.444271 -1.127256
-176.202896 28.658100 -1.344962
-176.137924 28.681860 -1.370830
-176.005463 28.869202 -1.488968
-175.809265 29.019444 -1.373087
-175.518845 29.313267 -1.330412
-175.320908 29.413788 -1.122932
-175.195694 29.535685 -1.198018
-175.133942 29.618486 -1.244996
-175.261703 29.472324 -1.255137
-175.387451 29.464848 -1.497931
-175.560150 29.319080 -1.683623
-175.684052 29.222960 -1.883932
-175.678452 29.233307 -1.992813
-175.715683 29.202616 -2.094487
-175.485535 29.434475 -2.298311
-175.337326 29.542053 -2.433124
-175.104095 29.774578 -2.310613
-174.891724 29.961618 -2.141894
-174.738815 30.088276 -2.091695
-174.664993 30.145235 -2.151629
-174.606934 30.135576 -2.251164
-174.687164 30.024956 -2.273358
-174.753967 29.954918 -2.436214
-174.974854 29.817039 -2.603698
-174.955460 29.596996 -2.898140
-175.029984 29.497669 -2.962869
-174.906891 29.557570 -3.067392
-174.781708 29.655083 -3.167492
-174.594223 29.865980 -3.062904
-174.334946 30.066853 -3.131330
-174.115082 30.226606 -3.243068
-174.021042 30.265894 -3.156626
-173.910309 30.271070 -3.217436
-173.933533 30.198671 -3.284786
-173.952637 30.155750 -3.276591
-174.119980 30.026110 -3.464979
-174.234314 29.772612 -3.694160
-174.156342 29.643703 -3.825095
-174.121063 29.543734 -3.930248
-174.013474 29.535395 -4.018675
-173.856430 29.589998 -4.114201
-173.649475 29.778418 -4.197042
-173.500992 29.891109 -4.246118
-173.262177 30.107616 -4.095507
-173.148438 30.047766 -4.205421
-173.031982 29.919544 -4.357358
-173.147217 29.989069 -4.273675
-173.207748 29.764009 -4.468629
-173.375824 29.605785 -4.568224
-173.370636 29.470516 -4.662403
-173.374054 29.410559 -4.718712
-173.260498 29.306246 -4.823071
-173.173828 29.312134 -4.840394
-173.034698 29.334593 -4.931015
-172.837189 29.421789 -5.045976
-172.611816 29.524475 -5.078370
-172.447372 29.454035 -5.175064
-172.373444 29.473766 -5.081306
-172.361877 29.388632 -5.171909
-172.422989 29.224585 -5.313732
-172.516617 29.190241 -5.363902
-172.674789 29.057461 -5.437358
-172.609924 28.994280 -5.514046
-172.576569 28.903149 -5.581992
-172.414154 28.850857 -5.672329
-172.284576 28.770845 -5.763234
-172.154160 28.705177 -5.819216
-171.901917 28.622646 -5.950534
-171.806931 28.632816 -5.961211
-171.607880 28.675606 -5.942485
-171.663635 28.572218 -6.007810
-171.630371 28.596697 -5.994318
-171.707367 28.431347 -6.147900
-171.815582 28.403004 -6.175765
-172.024719 28.234800 -6.331126
-171.981079 28.258665 -6.315930
-171.775909 28.097912 -6.469233
-171.629929 28.002634 -6.560362
-171.549118 27.974552 -6.590425
-171.406921 27.906206 -6.645950
-171.212097 27.828423 -6.636258
-171.037628 27.753702 -6.693002
-170.945862 27.791548 -6.677009
-170.934097 27.774630 -6.688856
-170.986832 27.670694 -6.796750
-171.105118 27.577837 -6.900799
-171.267685 27.535336 -6.951023
-171.332703 27.424135 -7.067555
-171.253159 27.343517 -7.140599
-171.114975 27.227934 -7.249458
-171.015244 27.214756 -7.247871
-170.804611 27.020468 -7.432842
-170.746750 27.090334 -7.308555
-170.532120 26.981504 -7.388883
-170.460632 26.991091 -7.360286
-170.298309 26.928926 -7.430153
-170.376770 26.799913 -7.560802
-170.435196 26.836134 -7.539932
-170.500153 26.824867 -7.564705
-170.624863 26.649149 -7.732657
-170.626755 26.514318 -7.861704
-170.614944 26.548555 -7.828831
-170.484482 26.428364 -7.941136
-170.288834 26.302948 -8.058942
-170.147934 26.199493 -8.160659
-170.028992 26.246033 -8.110415
-169.869705 26.106325 -8.246085
-169.695358 26.156300 -8.257963
-169.732208 26.046061 -8.352471
-169.719955 26.032284 -8.361962
-169.830460 25.960560 -8.422092
-169.912460 25.948290 -8.424937
-169.926056 25.892172 -8.480855
-170.000824 25.822435 -8.543126
-169.824783 25.737671 -8.614082
-169.653656 25.634708 -8.756991
-169.511978 25.557686 -8.873174
-169.425903 25.529787 -8.945684
-169.325333 25.492643 -9.057954
-169.192917 25.512367 -9.128442
-169.167419 25.452158 -9.176856
-169.086258 25.430210 -9.263120
-169.128784 25.380667 -9.256935
-169.234833 25.333900 -9.217709
-169.154861 25.164238 -9.377398
-169.079712 25.130672 -9.406876
-168.998276 25.049259 -9.519668
-168.961838 24.959150 -9.567835
-168.911087 24.958279 -9.621889
-168.791138 24.916603 -9.749867
-168.692490 25.119370 -9.856199
-168.642227 25.180519 -9.912734
-168.543365 25.267544 -10.032637
-168.443710 25.267199 -10.123540
-168.488586 25.127619 -10.162136
-168.368073 25.026548 -10.239201
-168.500259 24.953516 -10.146572
-168.426651 24.822453 -10.216432
-168.375641 24.749834 -10.323978
-168.259003 24.660091 -10.428916
-168.232544 24.626736 -10.473423
-168.114685 24.734739 -10.632895
-168.008209 24.873575 -10.782689
-168.016693 24.991211 -10.803802
-167.935043 25.126472 -10.965259
-167.939697 25.211454 -11.040620
-167.903824 25.193602 -11.087144
-167.843246 25.061239 -11.238591
-167.709686 24.899872 -11.167602
-167.673767 24.771177 -11.235383
-167.622208 24.673719 -11.267850
-167.548462 24.632181 -11.349806
-167.471268 24.744162 -11.492366
-167.391708 24.751854 -11.596613
-167.325439 24.932598 -11.741566
-167.297211 25.110092 -11.906451
-167.365768 25.218105 -11.925866
-167.458435 25.338842 -12.016385
-167.451385 25.338161 -12.070110
-167.320572 25.401237 -12.208457
-167.249924 25.237360 -12.183904
-167.104935 25.089390 -12.284026
-167.002960 24.934134 -12.248049
-166.934570 24.903965 -12.299875
-166.819336 25.111095 -12.466361
-166.824051 25.122324 -12.510253
-166.702194 25.297331 -12.642042
-166.824326 25.468893 -12.818540
-167.007141 25.514074 -12.794275
-167.080353 25.708839 -12.981521
-167.036743 25.758671 -13.015733
-167.088211 25.819880 -13.047121
-166.933975 25.792341 -13.122934
-166.789047 25.873899 -13.265965
-166.632492 25.757168 -13.289412
-166.565247 25.709929 -13.309949
-166.490463 25.837528 -13.381197
-166.506821 25.803881 -13.350129
-166.341797 25.946266 -13.482656
-166.422989 26.056690 -13.560586
-166.573593 26.193335 -13.692164
-166.709732 26.292852 -13.784332
-166.819855 26.369432 -13.875029
-166.839752 26.414118 -13.948369
-166.732574 26.450096 -13.955757
-166.693863 26.506739 -14.014991
-166.541718 26.570690 -14.038237
-166.409622 26.608786 -14.077402
-166.305206 26.624062 -14.051396
-166.238480 26.677107 -14.108762
-166.185486 26.807762 -14.206775
-166.208099 26.896391 -14.289493
-166.283188 26.975483 -14.367625
-166.460480 27.113764 -14.526384
-166.596863 27.142048 -14.593518
-166.662216 27.254524 -14.727547
-166.656738 27.257483 -14.742537
-166.577652 27.304192 -14.787592
-166.388367 27.473660 -14.868151
-166.234940 27.436392 -14.613824
-166.103073 27.576889 -14.701857
-166.050522 27.589878 -14.704809
-166.036713 27.660143 -14.729902
-165.936401 27.805464 -14.839621
-166.108444 27.883995 -14.962786
-166.276840 27.998325 -15.114576
-166.454086 28.058090 -15.218328
-166.497437 28.117685 -15.340212
-166.527893 28.237799 -15.501528
-166.442307 28.267078 -15.471925
-166.266251 28.389608 -15.405050
-166.153503 28.380905 -15.343526
-165.987076 28.498434 -15.235046
-165.883057 28.633537 -15.189150
-165.831772 28.645290 -15.216249
-165.840118 28.712532 -15.264178
-165.890259 28.746649 -15.341883
-166.008530 28.905142 -15.471142
-166.281174 28.865295 -15.686542
-166.322433 29.088505 -15.805841
-166.277740 29.227633 -15.934835
-166.203171 29.279163 -16.015192
-166.203659 29.359703 -16.087385
-166.035233 29.462317 -15.909423
-165.879837 29.494730 -15.772153
-165.763245 29.570559 -15.696197
-165.641953 29.635862 -15.624646
-165.613342 29.587128 -15.590838
-165.667007 29.711842 -15.691192
-165.760376 29.759155 -15.818249
-165.994141 29.943386 -16.070101
-166.015854 30.077173 -16.173681
-166.164429 30.084444 -16.323242
-166.014725 30.263903 -16.443287
-166.025299 30.254812 -16.423691
-165.873169 30.456335 -16.405788
-165.757614 30.497728 -16.287119
-165.588669 30.653557 -16.185970
-165.458969 30.657812 -15.994942
-165.483368 30.668604 -16.004580
-165.430893 30.785135 -16.052544
-165.403275 30.878088 -16.176157
-165.556564 30.897741 -16.280884
-165.677277 31.049961 -16.504185
-165.757980 31.112589 -16.612732
-165.823273 31.163120 -16.762980
-165.676697 31.344063 -16.835638
-165.583176 31.410269 -16.704752
-165.550903 31.515738 -16.744991
-165.403992 31.499290 -16.583317
-165.269058 31.547916 -16.326981
-165.139053 31.534433 -16.236322
-165.109238 31.711510 -16.333874
-165.103287 31.797075 -16.397703
-165.054794 31.978519 -16.567825
-165.240982 31.948250 -16.684206
-165.303360 32.064636 -16.838024
-165.376709 32.143692 -17.015247
-165.309143 32.246288 -17.114407
-165.208450 32.346786 -17.101059
-165.131958 32.393345 -17.005398
-165.005127 32.525558 -16.927166
-164.857162 32.588234 -16.675800
-164.768829 32.642536 -16.594467
-164.676147 32.673927 -16.481781
-164.652542 32.769928 -16.634912
-164.631470 32.894894 -16.739281
-164.631561 32.959709 -16.807232
-164.735123 33.057137 -17.008568
-164.821854 33.020176 -17.102484
-164.707413 33.161682 -17.257225
-164.642761 33.284534 -17.401779
-164.607132 33.326527 -17.351511
-164.482040 33.446537 -17.268665
-164.430450 33.431618 -17.127123
-164.309998 33.524189 -16.892996
-164.262009 33.537601 -16.813589
-164.169312 33.659348 -16.837723
-164.017761 33.809597 -16.781322
-164.072311 33.727478 -16.856026
-164.071136 33.893517 -17.101303
-164.207367 33.879616 -17.291590
-164.081696 33.993809 -17.411074
-164.011078 34.044624 -17.510647
-163.919601 34.148247 -17.558540
-163.826965 34.240406 -17.467224
-163.790527 34.253395 -17.353172
-163.695862 34.349850 -17.230738
-163.559311 34.483860 -17.060507
-163.603745 34.417789 -16.963442
-163.537979 34.493481 -17.015095
-163.411255 34.639698 -17.012466
-163.476288 34.570438 -17.153276
-163.356216 34.694931 -17.296246
-163.292267 34.757511 -17.443783
-163.224182 34.825802 -17.580137
-163.094742 34.935585 -17.664669
-163.027725 35.001637 -17.649900
-162.968826 35.042423 -17.659914
-162.895721 35.150566 -17.417572
-162.878586 35.162998 -17.306114
-162.746765 35.293167 -17.165340
-162.801163 35.256413 -17.134716
-162.758347 35.319225 -17.071890
-162.608688 35.395439 -17.252438
-162.582001 35.421658 -17.339853
-162.440338 35.514816 -17.515364
-162.409180 35.514263 -17.639105
-162.319870 35.553677 -17.782824
-162.242294 35.617237 -17.841921
-162.173401 35.677162 -17.718294
-162.051437 35.780266 -17.694052
-161.945908 35.882713 -17.518650
-161.940521 35.916172 -17.395248
-161.913361 35.985531 -17.232553
-161.802475 36.065517 -17.268194
-161.736404 36.111382 -17.272047
-161.637512 36.160202 -17.431389
-161.570953 36.216770 -17.551575
-161.541473 36.142128 -17.657898
-161.293686 36.174435 -17.859871
-161.326904 36.057625 -17.856102
-161.134293 36.125347 -17.921253
-161.171890 36.228897 -17.851542
-161.085800 36.364616 -17.656088
-161.004898 36.493393 -17.446190
-160.955978 36.515392 -17.485323
-160.865768 36.672615 -17.333052
-160.805634 36.739983 -17.264593
-160.705872 36.743492 -17.366341
-160.603760 36.723320 -17.466696
-160.544281 36.667198 -17.563545
-160.446365 36.454952 -17.739248
-160.288879 36.518570 -17.888121
-160.263290 36.536762 -17.872385
-160.143738 36.613449 -17.868706
-160.133926 36.702900 -17.806944
-160.010757 36.844223 -17.751589
-159.963058 36.982738 -17.657198
-159.844879 37.095154 -17.519651
-159.735764 37.111874 -17.515718
-159.718369 37.167545 -17.417519
-159.633484 37.141315 -17.384993
-159.523544 37.006283 -17.454279
-159.468842 36.877190 -17.491686
-159.414536 36.718624 -17.568054
-159.244751 36.693890 -17.592697
-159.180252 36.838921 -17.718632
-159.101166 36.897282 -17.697372
-159.028961 36.992535 -17.742079
-158.972046 37.132072 -17.833012
-158.767227 37.359760 -17.709068
-158.705032 37.330475 -17.671572
-158.723221 37.370991 -17.614183
-158.645615 37.437267 -17.605789
-158.548172 37.285622 -17.471518
-158.389893 37.143707 -17.422304
-158.238861 37.006317 -17.300507
-158.123306 36.822872 -17.132799
-157.971512 36.885178 -17.183784
-158.073441 36.906803 -17.247602
-157.939911 37.062168 -17.383236
-157.878967 37.241184 -17.519672
-157.796738 37.325634 -17.635128
-157.638336 37.390705 -17.616352
-157.657913 37.516090 -17.686163
-157.509338 37.522774 -17.581957
-157.358871 37.488056 -17.505938
-157.346436 37.327824 -17.395008
-157.215057 37.165798 -17.207027
-157.173203 37.088737 -17.149195
-157.016739 37.003468 -17.042669
-156.973236 37.001823 -16.994453
-156.914780 37.004620 -16.994577
-156.894547 37.195023 -17.188463
-156.752411 37.298084 -17.307198
-156.661240 37.435196 -17.464174
-156.569519 37.464729 -17.499949
-156.575928 37.367874 -17.512238
-156.386642 37.478523 -17.422554
-156.275864 37.484844 -17.288668
-156.275146 37.253098 -17.189817
-156.175934 37.174431 -17.050888
-156.016525 37.214405 -16.830801
-155.999802 37.145454 -16.874758
-155.873169 37.195503 -16.807026
-155.742264 37.382507 -16.808094
-155.712708 37.340611 -16.970842
-155.701233 37.284840 -17.207661
-155.568146 37.223373 -17.121431
-155.599350 37.181866 -17.316288
-155.460083 37.042015 -17.221647
-155.300339 37.056870 -16.998344
-155.170135 37.025547 -16.997839
-155.190979 37.183685 -16.805920
-154.995132 37.294399 -16.637297
-154.996033 37.364685 -16.618011
-154.892563 37.458492 -16.471975
-154.786331 37.379845 -16.485773
-154.780472 37.301243 -16.582655
-154.664505 37.200172 -16.693296
-154.519974 37.044773 -16.888144
-154.450256 36.872215 -16.953081
-154.367706 36.937340 -16.867849
-154.249878 36.809422 -16.908484
-154.150116 36.867233 -16.720934
-154.014023 37.070351 -16.554159
-153.974930 37.152695 -16.442591
-153.867813 37.320816 -16.264771
-153.785889 37.367653 -16.172617
-153.704025 37.300236 -16.177774
-153.873413 37.309772 -16.252119
-153.627701 37.164764 -16.335238
-153.562668 37.051338 -16.420269
-153.486984 36.962662 -16.465714
-153.371429 36.794838 -16.537329
-153.169098 36.684048 -16.492498
-153.251419 36.825005 -16.365437
-153.066132 36.848911 -16.262953
-152.976639 37.045311 -16.118113
-152.877884 37.139626 -15.977464
-152.848862 37.206650 -15.907974
-152.743713 37.275909 -15.848283
-152.721222 37.293182 -15.807559
-152.595215 37.185719 -15.826579
-152.596970 37.018875 -16.089680
-152.351242 36.807171 -16.123184
-152.350739 36.764313 -16.104729
-152.259827 36.687782 -16.047230
-152.144958 36.680950 -15.976884
-152.042587 36.619007 -15.924416
-151.972595 36.844196 -15.793795
-151.896393 36.997406 -15.662067
-151.935318 37.130066 -15.565077
-151.791428 37.254063 -15.394047
-151.643585 37.231236 -15.411977
-151.600204 37.132450 -15.514156
-151.620667 37.037983 -15.580658
-151.458588 36.850342 -15.695248
-151.339310 36.728420 -15.622313
-151.356522 36.672726 -15.624631
-151.217346 36.649761 -15.539929
-151.062164 36.561020 -15.462634
-150.933929 36.683647 -15.367197
-150.870132 36.853951 -15.301300
-150.831589 37.012043 -15.207735
-150.725891 37.130630 -15.118151
-150.672836 37.124973 -15.119445
-150.667770 37.086571 -15.152708
-150.563263 37.020405 -15.190799
-150.497208 36.909779 -15.239099
-150.395844 36.755898 -15.112090
-150.247513 36.572666 -15.026418
-150.228897 36.547508 -15.022169
-150.052826 36.503849 -14.901935
-150.025436 36.623001 -14.897798
-149.896881 36.774178 -14.770163
-149.766739 36.936535 -14.759772
-149.758499 37.001350 -14.765168
-149.669266 37.106049 -14.905773
-149.645920 37.109322 -14.868155
-149.516541 37.061287 -14.835728
-149.513016 36.976337 -14.756020
-149.456360 36.774010 -14.651569
-149.349319 36.644600 -14.555136
-149.268326 36.500317 -14.486985
-149.149368 36.511806 -14.429504
-149.062347 36.539566 -14.325924
-149.007019 36.635956 -14.283931
-148.907639 36.796936 -14.362742
-148.801849 36.924549 -14.415477
-148.676346 37.094536 -14.555424
-148.579819 37.158966 -14.593560
-148.515472 37.152206 -14.560287
-148.587326 37.055447 -14.503548
-148.451599 36.922020 -14.345216
-148.397751 36.813808 -14.275083
-148.230209 36.554958 -14.018851
-148.108154 36.570004 -13.999894
-148.015549 36.527115 -13.860021
-147.976120 36.618191 -13.867581
-147.871613 36.719883 -13.940372
-147.799713 36.886402 -14.077143
-147.714767 37.000336 -14.146767
-147.688644 37.164471 -14.262853
-147.564240 37.220776 -14.332527
-147.555344 37.170231 -14.310696
-147.415588 37.095619 -14.177042
-147.331039 36.870693 -13.943348
-147.255707 36.700787 -13.784329
-147.281021 36.583763 -13.711668
-147.144043 36.636482 -13.689795
-146.975891 36.601501 -13.543715
-146.886856 36.719704 -13.579358
-146.770737 36.840855 -13.655789
-146.637070 37.035137 -13.838442
-146.557877 37.191757 -13.979986
-146.543915 37.182640 -13.947869
-146.455826 37.212257 -13.989382
-146.466858 37.194321 -14.011516
-146.275192 37.058338 -13.783476
-146.403488 36.933197 -13.709389
-146.209137 36.741188 -13.514399
-146.086884 36.633690 -13.387996
-145.967346 36.651321 -13.330996
-145.862473 36.737068 -13.350191
-145.676926 36.866631 -13.369239
-145.652374 36.985504 -13.522615
-145.464478 37.135242 -13.641888
-145.488907 37.233826 -13.745336
-145.518692 37.280991 -13.806171
-145.342361 37.254230 -13.760563
-145.408325 37.131676 -13.653431
-145.298981 37.076698 -13.553865
-145.215546 36.889160 -13.369695
-145.065552 36.756340 -13.252172
-144.989532 36.729229 -13.158430
-144.870560 36.746521 -13.093985
-144.674637 36.891644 -13.166178
-144.554092 37.013535 -13.312602
-144.485489 37.118252 -13.434531
-144.469101 37.224911 -13.535050
-144.429413 37.228382 -13.540958
-144.308060 37.292534 -13.611657
-144.306244 37.273922 -13.622627
-144.182709 37.156921 -13.450930
-144.168030 37.028076 -13.308752
-144.056412 36.861401 -13.168301
-143.950943 36.909695 -13.111431
-143.810333 36.832584 -12.994140
-143.658508 36.964413 -13.065678
-143.558029 36.940529 -13.021482
-143.582428 37.097637 -13.251068
-143.411285 37.244583 -13.423799
-143.356445 37.290470 -13.515962
-143.374695 37.248211 -13.584051
-143.416016 37.267239 -13.580865
-143.254715 37.137070 -13.492173
-143.137665 37.084068 -13.295024
-143.106125 36.911388 -13.160494
-143.011841 37.002934 -13.102686
-142.866714 37.075253 -12.959970
-142.659882 37.190987 -13.008582
-142.560196 37.232231 -12.949512
-142.463242 37.272022 -13.152665
-142.334152 37.027767 -13.366129
-142.457291 37.090508 -13.429575
-142.190063 36.977612 -13.538133
-142.268005 36.952511 -13.533625
-142.162704 37.025620 -13.512901
-142.295319 36.979877 -13.431077
-142.045288 37.124229 -13.276197
-141.890442 37.268749 -13.103103
-141.851105 37.297558 -13.059080
-141.652557 37.400295 -12.961442
-141.665146 37.378082 -13.006422
-141.400497 37.295971 -13.141568
-141.377243 37.267342 -13.182341
-141.314835 37.074085 -13.402355
-141.272629 36.915924 -13.572281
-141.115204 36.963192 -13.552952
-141.189972 36.820644 -13.678548
-141.032928 36.845016 -13.644249
-141.110016 37.024254 -13.450636
-140.979111 37.157425 -13.312890
-140.883560 37.311115 -13.115363
-140.807709 37.367474 -13.132967
-140.583450 37.401611 -13.180923
-140.502548 37.284622 -13.279957
-140.354919 37.279472 -13.327590
-140.215210 37.130322 -13.473233
-140.198517 36.993374 -13.588138
-140.180222 36.788448 -13.824660
-140.114838 36.835781 -13.757800
-140.174194 36.762051 -13.792899
-140.062210 36.841492 -13.756598
-139.953644 37.008812 -13.593278
-139.897293 37.133183 -13.469850
-139.620834 37.280109 -13.430182
-139.594345 37.328579 -13.398497
-139.532715 37.324612 -13.452188
-139.350754 37.197311 -13.578783
-139.301773 37.042099 -13.682402
-139.188889 36.871185 -13.835144
-139.177216 36.745415 -13.909397
-139.158936 36.678387 -13.988241
-139.098129 36.647461 -14.037427
-139.060776 36.704178 -14.005517
-139.070953 36.839470 -13.950662
-138.951965 36.957878 -13.848573
-138.862930 37.208050 -13.690187
-138.680252 37.172310 -13.833181
-138.632996 37.175575 -13.890990
-138.453674 37.038334 -14.045601
-138.375580 36.947254 -14.086620
-138.218857 36.812290 -14.268380
-138.089722 36.657108 -14.260386
-138.076630 36.568935 -14.209118
-138.132141 36.504265 -14.154528
-138.146118 36.451916 -14.125858
-138.143295 36.555317 -14.128888
-138.001633 36.711468 -14.228785
-137.892441 36.846771 -14.351212
-137.832932 37.026356 -14.427439
-137.738464 36.998077 -14.489656
-137.584335 36.904373 -14.602406
-137.486847 36.771866 -14.628297
-137.410263 36.685410 -14.745053
-137.296387 36.471535 -14.596710
-137.050369 36.353149 -14.734082
-137.209915 36.271275 -14.534449
-137.151566 36.219055 -14.537252
-137.212646 36.304356 -14.580385
-137.191406 36.351818 -14.579582
-137.037872 36.500443 -14.767113
-136.981094 36.668682 -14.868603
-136.853775 36.633907 -14.956472
-136.782089 36.697609 -15.024615
-136.554703 36.460945 -15.224728
-136.510223 36.424866 -15.179537
-136.448212 36.318008 -15.230770
-136.334152 36.157013 -15.164218
-136.196442 36.030056 -15.161071
-136.244965 35.923752 -14.996955
-136.305130 36.017422 -15.060912
-136.252182 35.892300 -15.062190
-136.188202 36.028900 -15.227689
-136.095932 36.188778 -15.340564
-136.017670 36.270355 -15.446436
-135.943115 36.230503 -15.502465
-135.797363 36.140251 -15.669752
-135.692566 36.003544 -15.660167
-135.590698 35.920216 -15.772821
-135.564011 35.848873 -15.690293
-135.511505 35.754330 -15.592118
-135.396515 35.589470 -15.602440
-135.350174 35.546631 -15.687310
-135.412704 35.559261 -15.622208
-135.412460 35.665905 -15.697466
-135.424759 35.789631 -15.750515
-135.187531 35.622467 -15.926504
-135.198425 35.706230 -15.943405
-135.071899 35.587391 -16.022255
-135.040726 35.561474 -16.019020
-134.878464 35.420193 -16.139448
-134.777161 35.348862 -16.224438
-134.605942 35.183014 -16.378622
-134.659851 35.218918 -16.284054
-134.686874 35.210777 -16.231304
-134.603607 35.143661 -16.318230
-134.578644 35.123051 -16.334581
-134.527832 35.137505 -16.371851
-134.482788 35.044640 -16.414486
-134.439560 35.063763 -16.487511
-134.434891 35.086540 -16.493267
-134.276657 34.923904 -16.615219
-134.110199 34.784267 -16.749062
-134.119019 34.801674 -16.724239
-133.941895 34.655521 -16.904629
-133.980301 34.681786 -16.915545
-133.913055 34.603161 -16.795740
-133.910187 34.599648 -16.909124
-133.861649 34.567661 -16.879202
-133.860397 34.574234 -16.864300
-133.730133 34.455696 -17.028925
-133.701035 34.428558 -17.064493
-133.688416 34.420063 -17.070320
-133.582245 34.321358 -17.162996
-133.531250 34.271332 -17.209902
-133.441711 34.186314 -17.281542
-133.292725 34.040607 -17.422607
-133.338699 34.096260 -17.379259
-133.230804 33.993107 -17.458838
-133.175873 33.940075 -17.506105
-133.249420 34.017281 -17.410963
-133.153336 33.912796 -17.522177
-133.139893 33.896763 -17.532648
-133.076782 33.832436 -17.598614
-133.044662 33.801376 -17.631235
-132.957504 33.713642 -17.706814
-132.858627 33.604702 -17.797684
-132.846664 33.590565 -17.807013
-132.762421 33.499760 -17.878075
-132.654846 33.388390 -17.970253
-132.561203 33.290367 -18.076099
-132.546387 33.284840 -18.016460
-132.589203 33.329315 -18.025751
-132.402390 33.159824 -18.102240
-132.419067 33.164013 -18.148338
-132.428635 33.166367 -18.149920
-132.435242 33.110111 -18.216702
-132.390900 33.066601 -18.262753
-132.294586 32.960491 -18.351290
-132.272903 32.917160 -18.376205
-132.237396 32.863831 -18.424545
-132.070557 32.672573 -18.602709
-131.973923 32.581051 -18.660332
-131.869843 32.570831 -18.611553
-131.818176 32.545784 -18.543564
-131.793320 32.492252 -18.597275
-131.752289 32.440018 -18.552143
-131.736938 32.423992 -18.597063
-131.918396 32.429512 -18.731756
-131.967651 32.308167 -18.862541
-131.968094 32.313694 -18.869194
-131.920502 32.190708 -18.963392
-131.818817 32.108471 -19.047564
-131.772736 32.067768 -19.040092
-131.664047 31.948944 -19.219357
-131.533218 31.829748 -19.286755
-131.393951 31.816441 -19.099409
-131.308609 31.720066 -19.087221
-131.240234 31.671436 -18.950195
-131.154190 31.595863 -19.008606
-131.215561 31.530548 -19.139690
-131.429047 31.687290 -19.193098
-131.535767 31.474802 -19.398636
-131.586029 31.417614 -19.489384
-131.586380 31.263332 -19.628458
-131.434723 31.152119 -19.713760
-131.285370 31.009964 -19.811220
-131.191498 31.011673 -19.665096
-131.016235 30.957787 -19.532343
-130.900497 30.893402 -19.463497
-130.886490 30.841301 -19.484209
-130.815002 30.727179 -19.527279
-130.883987 30.742771 -19.567522
-131.038422 30.732986 -19.709028
-131.179916 30.660259 -19.850899
-131.207932 30.594873 -19.934469
-131.315109 30.504015 -20.047562
-131.159332 30.402351 -20.130182
-131.150635 30.330711 -20.234608
-130.916382 30.147003 -20.129316
-130.784790 30.104279 -20.106771
-130.676498 30.016266 -20.011662
-130.593719 29.954737 -20.012877
-130.515244 29.975616 -19.885479
-130.485397 29.865515 -19.903502
-130.695343 29.936279 -20.084629
-130.794861 29.832077 -20.220215
-130.922012 29.727833 -20.346670
-130.982224 29.634716 -20.450750
-130.976212 29.564873 -20.509727
-130.857498 29.456707 -20.562206
-130.803864 29.303411 -20.704588
-130.712418 29.268276 -20.653061
-130.525162 29.117668 -20.512396
-130.405777 29.067419 -20.382542
-130.342102 29.011236 -20.328112
-130.332779 28.930040 -20.324480
-130.285431 28.863588 -20.355288
-130.401810 28.872330 -20.456165
-130.589508 28.741310 -20.676147
-130.770248 28.791636 -20.835592
-130.685593 28.639837 -20.874294
-130.811646 28.621296 -21.051910
-130.696533 28.480755 -21.019363
-130.538086 28.350485 -20.918806
-130.461563 28.294970 -20.884506
-130.294510 28.142653 -20.789700
-130.254486 28.146841 -20.713200
-130.119324 28.047014 -20.582550
-130.114380 27.989908 -20.588472
-130.193329 27.952179 -20.664658
-130.371643 27.862148 -20.885689
-130.529587 27.698433 -21.082550
-130.628296 27.691690 -21.182907
-130.570450 27.549702 -21.228283
-130.558350 27.502960 -21.307049
-130.471283 27.356388 -21.309340
-130.381149 27.276968 -21.199738
-130.198853 27.214277 -21.069603
-130.286377 27.174959 -21.006128
-130.117310 27.054237 -20.903341
-130.144028 26.968687 -20.953144
-130.202118 27.049213 -20.905518
-130.385757 26.951344 -21.043362
-130.425690 26.801016 -21.188316
-130.277328 26.777641 -21.243330
-130.343216 26.641964 -21.257563
-130.177063 26.525333 -21.392544
-130.168686 26.479870 -21.455330
-130.190552 26.334152 -21.350264
-130.265778 26.198240 -21.415644
-130.375870 26.097553 -21.540018
-130.460754 26.092434 -21.416193
-130.489243 25.968815 -21.268251
-130.584000 25.953716 -21.370911
-130.562469 25.873974 -21.332212
-130.308258 25.936203 -21.209492
-130.190842 25.737162 -21.104099
-130.063339 25.625418 -21.118412
-130.074234 25.519350 -21.213797
-130.038712 25.429029 -21.184404
-130.107346 25.294050 -21.266211
-130.196732 25.315220 -21.382465
-130.365967 25.176344 -21.497757
-130.554291 25.155327 -21.619913
-130.615799 25.002821 -21.640800
-130.559967 25.009344 -21.573614
-130.618042 24.902214 -21.577818
-130.475525 24.859919 -21.461481
-130.439148 24.819244 -21.419044
-130.185135 24.658096 -21.185600
-130.126984 24.591341 -21.144489
-130.099869 24.475042 -21.101713
-130.060410 24.344219 -21.064428
-130.124908 24.359499 -21.117266
-130.270493 24.273331 -21.271784
-130.492996 24.140018 -21.455147
-130.614822 24.163980 -21.553297
-130.702133 23.953716 -21.640083
-130.761215 23.881077 -21.646225
-130.671982 23.800325 -21.480068
-130.548340 23.822733 -21.415461
-130.419968 23.856743 -21.298922
-130.208450 23.683271 -21.090706
-130.175644 23.482428 -21.013458
-130.157028 23.515892 -20.955637
-130.265549 23.322952 -20.956991
-130.352325 23.235188 -21.063961
-130.535843 23.150991 -21.208752
-130.671661 23.109896 -21.331972
-130.793884 23.108597 -21.461765
-130.874664 22.996469 -21.469929
-130.807449 22.947718 -21.438152
-130.775314 22.873095 -21.396509
-130.589188 22.760704 -21.171989
-130.419952 22.691286 -21.006048
-130.351151 22.547617 -20.933216
-130.258728 22.451826 -20.723957
-130.408905 22.339516 -20.801497
-130.430237 22.359505 -20.793131
-130.575012 22.229174 -20.850342
-130.700577 22.119196 -20.989515
-130.879761 22.188143 -21.186401
-130.925262 22.110054 -21.176010
-131.019653 22.002548 -21.229446
-130.922409 21.962069 -21.132215
-130.885529 21.879122 -21.060026
-130.731812 21.811413 -20.895824
-130.587509 21.675674 -20.710491
-130.432053 21.583462 -20.529358
-130.465027 21.461994 -20.463930
-130.524612 21.408428 -20.472151
-130.586655 21.428061 -20.516315
-130.775040 21.258432 -20.585358
-130.912079 21.138622 -20.628819
-131.001846 21.157970 -20.756313
-131.139786 21.026619 -20.822092
-131.192062 21.039812 -20.886700
-131.166519 20.887638 -20.770155
-131.052246 20.895359 -20.647985
-130.808792 20.741863 -20.419041
-130.730347 20.681808 -20.322432
-130.671143 20.530428 -20.163572
-130.653122 20.609974 -20.194351
-130.763336 20.497990 -20.153399
-130.887924 20.362234 -20.141865
-130.982162 20.315504 -20.150881
-131.159225 20.374983 -20.429741
-131.260590 20.278034 -20.452721
-131.349518 20.059155 -20.374460
-131.410477 19.975359 -20.352709
-131.289856 19.945198 -20.237270
-131.169800 19.923985 -20.130623
-130.828308 19.883768 -19.936886
-130.855240 19.774305 -19.816872
-130.900986 19.641779 -19.733076
-130.844467 19.677525 -19.736595
-130.988052 19.487154 -19.580141
-131.167404 19.428871 -19.696100
-131.367905 19.425423 -19.913298
-131.453217 19.310627 -19.891729
-131.604294 19.209524 -19.907040
-131.610733 19.270794 -20.003624
-131.587357 19.105251 -19.801983
-131.406967 18.985701 -19.638044
-131.146652 18.973082 -19.461061
-131.054932 18.955620 -19.408648
-131.088837 18.814552 -19.285517
-130.983154 18.819208 -19.183346
-131.052353 18.748846 -19.164354
-131.217331 18.647352 -19.297338
-131.468857 18.500854 -19.153076
-131.602356 18.495914 -19.380959
-131.733841 18.372826 -19.364433
-131.736618 18.391621 -19.335226
-131.903000 18.300787 -19.364180
-131.645981 18.271452 -19.159470
-131.569229 18.155983 -19.047815
-131.413956 18.060614 -18.920555
-131.238724 18.079794 -18.831381
-131.234360 17.995962 -18.761276
-131.251984 17.904434 -18.680674
-131.331635 17.886192 -18.706314
-131.408661 17.779396 -18.629530
-131.646683 17.726053 -18.749884
-131.778015 17.644650 -18.702782
-131.960342 17.544041 -18.678263
-131.918472 17.571388 -18.704384
-131.975601 17.383434 -18.540718
-131.859940 17.389317 -18.483372
-131.747131 17.300041 -18.402300
-131.505112 17.186810 -18.209682
-131.408310 17.226101 -18.215052
-131.441864 17.169725 -18.170122
-131.505676 17.045307 -18.089096
-131.559204 17.095695 -18.169046
-131.689957 17.062477 -18.252647
-131.877563 16.927805 -18.090368
-132.047745 16.854527 -18.103779
-132.116318 16.768566 -18.034843
-132.181992 16.714451 -17.966354
-132.115341 16.670095 -17.913595
-131.981766 16.595657 -17.823893
-131.896515 16.553209 -17.769739
-131.694672 16.447004 -17.651251
-131.640320 16.415571 -17.617334
-131.561661 16.293842 -17.486830
-131.705109 16.219683 -17.436441
-131.761154 16.259932 -17.506065
-131.981491 16.152634 -17.399519
-132.141296 16.124393 -17.432535
-132.301315 16.104797 -17.432341
-132.321960 15.993926 -17.327625
-132.286560 15.952275 -17.277222
-132.227615 15.800750 -17.132513
-132.069534 15.806574 -17.111731
-131.931458 15.787594 -17.074751
-131.806610 15.695472 -16.976448
-131.784439 15.614717 -16.883245
-131.749023 15.581514 -16.856501
-131.943268 15.479362 -16.764696
-132.068985 15.431461 -16.771236
-132.242554 15.432669 -16.808475
-132.368149 15.372954 -16.720259
-132.569443 15.279710 -16.647303
-132.521179 15.241043 -16.599012
-132.480972 15.196285 -16.552061
-132.349808 15.108430 -16.461889
-132.206757 15.037298 -16.387131
-132.049896 14.973512 -16.325048
-131.968460 14.889101 -16.229481
-131.964218 14.798360 -16.145557
-131.957581 14.781809 -16.129250
-132.073959 14.752463 -16.101717
-132.318298 14.663826 -16.019186
-132.428375 14.761203 -16.116837
-132.686096 14.555912 -15.918777
-132.621048 14.565513 -15.909773
-132.585129 14.503386 -15.850969
-132.562714 14.380779 -15.724095
-132.460449 14.429495 -15.774627
-132.325195 14.238840 -15.580790
-132.158981 14.248818 -15.597076
-132.086700 14.090305 -15.441551
-132.107025 14.070903 -15.416874
-132.070435 14.015580 -15.369383
-132.267960 14.021494 -15.347661
-132.422058 13.980089 -15.305221
-132.611755 13.922716 -15.233731
-132.816986 13.893127 -15.180584
-132.750580 13.821002 -15.118095
-132.734863 13.768104 -15.054987
-132.624084 13.617548 -14.898545
-132.446030 13.651855 -14.956965
-132.223709 13.462014 -14.762116
-132.240799 13.444139 -14.754531
-132.216461 13.425639 -14.714333
-132.284286 13.325353 -14.657632
-132.360260 13.265891 -14.568106
-132.492889 13.338162 -14.592307
-132.616287 13.230977 -14.473227
-132.806961 13.311872 -14.508764
-132.891647 13.218656 -14.420578
-132.884567 13.165470 -14.362242
-132.821030 13.005311 -14.190544
-132.659103 13.010274 -14.223089
-132.537018 12.898103 -14.098435
-132.385651 12.822968 -14.053849
-132.288086 12.674751 -13.901711
-132.359863 12.735397 -13.978352
-132.372223 12.730120 -13.931904
-132.503143 12.576177 -13.791201
-132.678574 12.583743 -13.730042
-132.869476 12.609304 -13.710604
-132.958389 12.578828 -13.651708
-132.886795 12.541667 -13.631735
-132.971634 12.482479 -13.539605
-132.826263 12.402987 -13.486567
-132.715805 12.260589 -13.315385
-132.545898 12.198419 -13.294297
-132.437820 12.092649 -13.212216
-132.406296 12.080378 -13.205593
-132.485580 11.989237 -13.122074
-132.391510 11.990610 -13.077071
-132.639435 11.901221 -13.023737
-132.844009 11.931806 -12.897402
-132.983246 12.026275 -12.907269
-133.043304 11.948218 -12.854193
-133.116592 11.916894 -12.788731
-132.972153 11.819321 -12.709560
-132.839188 11.660118 -12.579161
-132.655975 11.650273 -12.598057
-132.556061 11.513116 -12.458000
-132.419617 11.445534 -12.429880
-132.495071 11.329896 -12.293278
-132.495789 11.379129 -12.320728
-132.640930 11.339040 -12.227153
-132.765594 11.397863 -12.230706
-132.938583 11.278213 -12.080488
-133.084167 11.373580 -12.029696
-133.056686 11.394951 -12.075969
-133.071594 11.235950 -11.901402
-132.993500 11.160230 -11.834375
-132.822571 11.094049 -11.841650
-132.666626 10.936445 -11.687425
-132.470932 10.819133 -11.655657
-132.454575 10.761549 -11.598488
-132.560410 10.740320 -11.502341
-132.616547 10.824392 -11.485733
-132.708420 10.674891 -11.415731
-132.893219 10.700027 -11.275798
-133.052582 10.816292 -11.273379
-133.201645 10.811091 -11.133864
-133.133652 10.676556 -11.080742
-133.033966 10.611897 -11.064441
-132.913544 10.583152 -11.097980
-132.740814 10.419595 -10.924788
-132.638840 10.355118 -10.920010
-132.519531 10.218747 -10.816158
-132.480942 10.145418 -10.724189
-132.606537 10.072818 -10.639792
-132.655289 10.097608 -10.606083
-132.809280 10.185330 -10.566158
-132.993713 10.295624 -10.485280
-133.115479 10.231867 -10.314920
-133.241043 10.338593 -10.302445
-133.126968 10.174431 -10.227360
-133.142609 10.195690 -10.235832
-132.896912 9.963088 -10.101835
-132.721817 9.821388 -10.071284
-132.622391 9.688718 -9.963394
-132.515152 9.618474 -9.924803
-132.586914 9.513589 -9.791327
-132.552032 9.515714 -9.788478
-132.758026 9.620003 -9.708296
-132.900391 9.660975 -9.610396
-133.074112 9.719081 -9.530883
-133.160660 9.802247 -9.469765
-133.146973 9.721230 -9.386299
-133.152420 9.727053 -9.314587
-133.015152 9.532384 -9.275064
-132.791687 9.393373 -9.243848
-132.604477 9.204391 -9.147860
-132.489227 9.148606 -9.168418
-132.570953 9.087460 -8.996574
-132.583481 8.984474 -8.894581
-132.692505 9.046924 -8.881249
-132.822998 9.110835 -8.747129
-132.957367 9.244470 -8.736937
-133.154541 9.348797 -8.591869
-133.230133 9.458775 -8.652213
-133.158707 9.367692 -8.506652
-133.165344 9.270890 -8.351509
-132.934418 9.059084 -8.335115
-132.675903 8.848111 -8.337578
-132.563751 8.764894 -8.291860
-132.476074 8.619416 -8.189363
-132.447632 8.517977 -8.100512
-132.525650 8.525309 -7.988585
-132.709885 8.635340 -7.976167
-132.824554 8.739954 -7.862306
-133.046768 8.946413 -7.758371
-133.066864 8.948394 -7.630185
-133.104340 8.928779 -7.672454
-133.078979 8.935665 -7.604716
-132.958206 8.813238 -7.527530
-132.769516 8.617440 -7.542593
-132.576706 8.429691 -7.385435
-132.463150 8.291735 -7.347629
-132.394974 8.230684 -7.249658
-132.438965 8.192842 -7.145220
-132.453842 8.081595 -7.014874
-132.609512 8.260272 -7.019435
-132.829132 8.487988 -6.908051
-132.953201 8.584467 -6.744644
-132.955414 8.563826 -6.782932
-133.016983 8.637537 -6.744777
-132.862030 8.464478 -6.578466
-132.762863 8.337429 -6.511938
-132.588196 8.169076 -6.501709
-132.371429 7.970164 -6.487333
-132.227356 7.758965 -6.350378
-132.245941 7.778277 -6.348564
-132.302933 7.861639 -6.161439
-132.393097 7.856137 -6.166189
-132.551544 8.010440 -6.006504
-132.699371 8.156052 -5.907057
-132.854279 8.304696 -5.871486
-132.881897 8.328336 -5.855751
-132.821213 8.265940 -5.755009
-132.790817 8.210670 -5.640794
-132.552734 7.978490 -5.659241
-132.316620 7.733663 -5.649545
-132.159302 7.565065 -5.439777
-132.095001 7.515100 -5.505358
-132.052155 7.457852 -5.332201
-132.077744 7.468716 -5.224812
-132.252090 7.634981 -5.094730
-132.383102 7.770094 -5.097894
-132.557922 7.939003 -5.068493
-132.721344 8.101680 -5.024939
-132.644119 8.025212 -4.936608
-132.638123 8.008397 -4.940234
-132.472092 7.820721 -4.768703
-132.325912 7.678232 -4.713504
-132.031509 7.373994 -4.703487
-131.890228 7.245346 -4.583325
-131.907120 7.273504 -4.493645
-131.777267 7.145182 -4.371882
-131.940918 7.314517 -4.377752
-132.048782 7.427208 -4.233393
-132.303970 7.692451 -4.129807
-132.321594 7.726874 -4.032134
-132.521378 7.913035 -3.848977
-132.439774 7.830354 -3.997205
-132.327637 7.693641 -3.955002
-132.103210 7.490075 -3.774022
-131.953415 7.335862 -3.873085
-131.741013 7.121646 -3.756578
-131.608612 6.982894 -3.701724
-131.601486 7.022857 -3.567320
-131.573578 7.006043 -3.426414
-131.738632 7.177335 -3.431949
-131.872330 7.330902 -3.314539
-132.057648 7.541066 -3.172230
-132.124359 7.611377 -3.199676
-132.168228 7.652936 -3.128500
-132.062958 7.535133 -3.151424
-131.983353 7.436553 -3.086552
-131.735306 7.208642 -2.925953
-131.488525 6.956189 -2.917451
-131.388458 6.852505 -2.786604
-131.339706 6.818283 -2.793341
-131.307419 6.841481 -2.634353
-131.287201 6.951018 -2.511354
-131.490051 7.106170 -2.406437
-131.619934 7.251639 -2.363491
-131.827393 7.468543 -2.325299
-131.802063 7.454166 -2.240781
-131.798691 7.448618 -2.218370
-131.705078 7.343354 -2.121091
-131.562408 7.163636 -2.090302
-131.309418 6.952960 -2.045377
-131.141876 6.784227 -2.058019
-131.004120 6.688771 -1.803441
-130.974014 6.689804 -1.787515
-130.905716 6.681540 -1.651454
-131.039810 6.868748 -1.536585
-131.209641 7.076813 -1.432711
-131.323929 7.189867 -1.555951
-131.462006 7.347288 -1.435608
-131.471878 7.349399 -1.374782
-131.461060 7.343513 -1.272249
-131.328751 7.195550 -1.145092
-131.109589 6.949280 -1.282315
-130.848068 6.740386 -1.194173
