-0.0577360552273	0.711187540019	0.155992241627
-0.061483364921	0.691939942337	0.161538240417
-0.0550940984493	0.667425261657	0.191650199351
-0.0402862149406	0.638867527905	0.245315492544
-0.0202495940431	0.607015668442	0.31585702523
-0.00643392414552	0.590008527181	0.368149361987
-0.00334084627363	0.59273821646	0.395661877925
0.00634090404918	0.580402323445	0.437526320711
-0.0332432166188	0.648831816594	0.360156932101
-0.0622782489798	0.683596951451	0.304738458597
-0.0894275821286	0.70294580359	0.254175197197
-0.112910517921	0.709600682986	0.209296603094
-0.129278202793	0.703938493428	0.180111456441
-0.137481166444	0.68858531339	0.171083929816
-0.133431537757	0.666859648014	0.186503055055
-0.118440489141	0.641376838853	0.225714800301
-0.0986365038391	0.617099550839	0.277329877671
-0.0805458540274	0.600417960784	0.327704668048
-0.0415860482091	0.559855712988	0.419056773549
-0.0341352890763	0.556458817348	0.451063149268
-0.0486061567388	0.580517713798	0.444185921757
-0.106482186727	0.64793318296	0.354423961775
-0.121976922252	0.654835410126	0.344552621618
-0.168739420998	0.683321314512	0.260918815923
-0.189583437213	0.681577892794	0.227665943385
-0.205804384846	0.673210120886	0.19828626127
-0.209506318645	0.655634075611	0.193971831374
-0.198530998931	0.63373117018	0.215355105446
-0.175262858091	0.609506975455	0.261029766483
-0.144711752751	0.584878653587	0.322222445309
-0.100421878075	0.552056304724	0.402409128152
-0.114147382145	0.572765797785	0.401765900943
-0.11022821677	0.575948296002	0.42700137689
-0.119356969471	0.586157609797	0.433877725934
-0.181227377665	0.632520062129	0.356924352952
-0.219605769257	0.649974188805	0.306638772425
-0.246298563046	0.652153344892	0.270042329134
-0.269806787887	0.647844367931	0.230941826896
-0.272746445316	0.630516331425	0.226246635815
-0.270897261257	0.612313719854	0.226083321007
-0.248029900025	0.590028800506	0.259806598065
-0.211893880495	0.565717778962	0.316270540091
-0.174851502771	0.544537537804	0.376523921259
-0.136422355428	0.524094043756	0.438200622738
-0.133907444696	0.53033262761	0.459640501137
-0.129146699137	0.532374773221	0.481155764748
-0.205707150171	0.58363874342	0.411771216989
-0.24250426256	0.599773374624	0.377747177022
-0.290166460699	0.612931656231	0.320080181772
-0.320332821851	0.611048076983	0.278571147988
-0.335457922063	0.599566174456	0.253467249302
-0.333399793986	0.581173935218	0.251536291623
-0.315114342473	0.56125075117	0.270575248017
-0.284477360376	0.541593748787	0.308406045366
-0.244381260799	0.522679064956	0.362435013446
-0.213630549602	0.511918913767	0.409732361944
-0.157954933783	0.489001458378	0.479556070231
-0.147880658771	0.489405640063	0.506247006619
-0.181235070985	0.511672807795	0.494511500889
-0.260662836926	0.549163244131	0.431743727386
-0.31720063448	0.56504287798	0.377434727947
-0.351295616922	0.564849080456	0.340091950356
-0.380353873069	0.558264674627	0.299707678603
-0.388955387414	0.543389813954	0.281599466863
-0.378137498252	0.525086020517	0.286601690276
-0.350509082675	0.507173050827	0.312759797028
-0.307587803819	0.489899758312	0.360063680966
-0.268465812058	0.47807200954	0.407347312833
-0.202236970471	0.457651990702	0.479314801586
-0.173943492186	0.450629565412	0.519763115954
-0.19209834908	0.463729125503	0.524417129968
-0.236713353773	0.484933380161	0.504548421841
-0.297379812043	0.503425935787	0.463596737716
-0.371911942146	0.514632511016	0.396652272106
-0.413685181057	0.510259931753	0.349709652595
-0.430237360807	0.497609273342	0.323816549488
-0.43062015114	0.481127535572	0.313011069054
-0.41192927845	0.465011398909	0.323080470321
-0.374154698914	0.450948661321	0.356263282676
-0.326278901034	0.439035824256	0.403962136356
-0.268161934925	0.427611143292	0.463406611837
-0.22025490293	0.41854538153	0.515438624465
-0.250963682692	0.433879101332	0.513918747249
-0.246684405209	0.435256150527	0.534799219736
-0.327407059447	0.456549528297	0.487015652936
-0.359263592023	0.457149106424	0.469378504866
-0.409402303858	0.455446392983	0.425640686185
-0.451322672021	0.445922262691	0.379016987914
-0.469292477059	0.431236992228	0.349252771907
-0.457918342657	0.415303753706	0.348315821356
-0.432709539972	0.402515276628	0.362093515648
-0.386969073012	0.393104524917	0.400057076422
-0.323854730897	0.385089679333	0.45719483187
-0.267627014549	0.379555701643	0.510984675634
-0.232704394842	0.378964433298	0.54896945118
-0.231200226193	0.382952202961	0.567771614923
-0.333467829216	0.401698471798	0.521865353484
-0.392054119016	0.4051030434	0.48938297397
-0.442051368634	0.40070288038	0.452419605887
-0.473605402513	0.38934507081	0.421902765136
-0.495599036856	0.374793596513	0.391350555611
-0.494819035703	0.358750587515	0.378723228929
-0.472746670377	0.346047105034	0.385375212113
-0.433427176252	0.338126040357	0.410137705991
-0.385370934266	0.33487146438	0.447735826879
-0.333837568954	0.335263600298	0.493428208757
-0.258016419246	0.33437901864	0.553064661788
-0.25986026392	0.339801861167	0.571427185626
-0.263033630463	0.342693672734	0.587252749644
-0.367499170074	0.347955707811	0.542363097403
-0.427080589362	0.341720210352	0.509638890865
-0.474106371846	0.329832114388	0.473833862027
-0.50384037418	0.314521526349	0.441746256397
-0.515432274914	0.298479642598	0.418374624848
-0.504487738518	0.284637825232	0.412347448582
-0.475909223168	0.276917476571	0.422349764499
-0.425666848536	0.275822387743	0.454648974397
-0.372969335037	0.279074244549	0.494186753435
-0.321448486911	0.285885269408	0.536695114946
-0.283819618405	0.2916043549	0.574062648853
-0.253712691619	0.295183413595	0.605095946035
-0.329620876053	0.295222181163	0.586958229341
-0.388800221663	0.287044709636	0.565773612097
-0.452302803687	0.271867617304	0.529323954517
-0.496656064154	0.254545310834	0.492757257535
-0.5089693652	0.238022997676	0.472712353032
-0.517871268793	0.222161209493	0.449006965814
-0.50041151877	0.212176281549	0.445930970183
-0.459417380867	0.211579618228	0.464663570705
-0.405115204822	0.21765681943	0.498836195384
-0.335830010287	0.229539622673	0.544969881756
-0.272912341842	0.24191468721	0.588772526921
-0.244025927064	0.248890853089	0.618232734871
-0.282999320566	0.247394718398	0.621379378395
-0.3544523115	0.235487429736	0.604160252001
-0.391494280712	0.222935701095	0.593169478515
-0.4683718396	0.197644816934	0.546344194705
-0.504140357572	0.176185259579	0.513058012313
-0.516061892393	0.15882530731	0.489456410474
-0.51016318015	0.146287683044	0.475677744421
-0.481217673236	0.143635014791	0.480699336816
-0.434695669866	0.15066209642	0.503078546161
-0.379636223926	0.163664048801	0.53738487318
-0.313165734824	0.181943856331	0.580097480508
-0.250081695825	0.199013993728	0.621823538554
-0.239130473715	0.203606508036	0.643428106874
-0.30099978129	0.192517466361	0.638114872539
-0.322787660864	0.18340702808	0.641126360763
-0.432080209733	0.144385151357	0.591199490082
-0.474214063864	0.119543031209	0.560831474126
-0.494085242347	0.09909474346	0.535467586783
-0.504165818393	0.081673228927	0.510213378663
-0.484427610856	0.0761858148115	0.505550045441
-0.448938660093	0.0808654988594	0.514857621938
-0.397707124591	0.0956252679683	0.540844626726
-0.346575315908	0.113840316145	0.572921172624
-0.278886585014	0.138331250024	0.613470898081
-0.275599950416	0.142420383033	0.63443206185
-0.298509520322	0.135565651955	0.645593924956
-0.28013672859	0.140204982908	0.665326587798
-0.367791089153	0.103043565629	0.63817501538
-0.428618238512	0.0687511400618	0.606030704777
-0.463399275719	0.0415759181756	0.576105885593
-0.482751947969	0.0199132736059	0.547147034283
-0.473861981406	0.0102315214524	0.533722721012
-0.451004818001	0.0102340450103	0.530590890594
-0.40968527675	0.0232690467428	0.545025617668
-0.352666220172	0.047206693383	0.575262376288
-0.300880731632	0.0705069820567	0.607491187823
-0.217968959435	0.110194901395	0.650931431247
-0.258935655555	0.0921052856916	0.657840370603
-0.230508909399	0.105156899553	0.681585579196
-0.276129362687	0.0790665819557	0.680374023068
-0.347026454298	0.0384891128802	0.656715102192
-0.413617535969	-0.00631673747656	0.617549576467
-0.444561081159	-0.035733064513	0.585611406262
-0.447403184312	-0.0507883013727	0.565214117097
-0.436502436835	-0.0567142009758	0.551640774109
-0.404396821931	-0.0466702580007	0.555691537873
-0.352873240067	-0.021429047889	0.577611539761
-0.299980861788	0.00626553369039	0.606074400652
-0.240346718684	0.0400440425157	0.640815016825
-0.187464693932	0.0715449745339	0.67231825097
-0.189211048935	0.0698763690906	0.689649883853
-0.232316718486	0.0419943417111	0.693250955466
-0.30899211779	-0.00972813688309	0.674256369453
-0.344110552761	-0.0403244189427	0.657952233085
-0.384735192407	-0.0774627654516	0.627092678594
-0.408489564006	-0.105885532556	0.595810564238
-0.40877806458	-0.118476130598	0.574740819144
-0.386908668396	-0.114027922169	0.568895243837
-0.344450651634	-0.0913780504038	0.58092912068
-0.299388509018	-0.0641937020696	0.601180768649
-0.234288720227	-0.0205539814686	0.635995565133
-0.171409513574	0.0226306981445	0.669117961949
-0.166330541056	0.0251967054247	0.688899338015
-0.19339748434	0.00390321135537	0.69865178244
-0.228190741891	-0.0259321354665	0.699628848577
-0.29072120992	-0.0809941782361	0.678691085148
-0.335339685752	-0.124769899934	0.650820873572
-0.354576260503	-0.152234812234	0.626264085086
-0.365993820838	-0.172766669252	0.599677986296
-0.356651098536	-0.176784944791	0.583949534178
-0.328769710385	-0.162559691015	0.58353355241
-0.278641054353	-0.126715669792	0.602579747426
-0.224415453323	-0.0845575050713	0.629373947668
-0.161442011174	-0.034404637183	0.661287109848
-0.129845321285	-0.0099671061874	0.685624316227
-0.125331929146	-0.00906264181384	0.703791691549
-0.183307312367	-0.0620430639969	0.70376416616
-0.189744359782	-0.0772507516245	0.709696132012
-0.265327149383	-0.152615231982	0.676760429032
-0.285853192195	-0.184174963224	0.656164255315
-0.313213789477	-0.220296610114	0.622121983768
-0.3119030359	-0.230765781073	0.601464219363
-0.294803526923	-0.224157075553	0.59163021413
-0.262539549112	-0.199262721807	0.596896574771
-0.217042555776	-0.159057200943	0.616644802909
-0.16524568408	-0.11082050884	0.645062178793
-0.136340367626	-0.0850396363792	0.668816744766
-0.0875752686197	-0.0414394050098	0.697345764843
-0.0949315690831	-0.0543077382196	0.711927738037
-0.122028719827	-0.0889200321101	0.717182873815
-0.199381644097	-0.178675144295	0.691070126058
-0.211139625715	-0.205292705068	0.679532794244
-0.249374319502	-0.256784058504	0.642760593946
-0.257558639643	-0.276966283345	0.617255562598
-0.248842451555	-0.277872472529	0.600780865375
-0.225407436876	-0.2585227779	0.597917381019
-0.189095248632	-0.222141347144	0.609204407029
-0.138741240438	-0.167665930186	0.634209606009
-0.0832970414288	-0.106682518842	0.663455940241
-0.0820504200927	-0.110128769183	0.680566942722
-0.0483951227107	-0.0767176134202	0.704529688349
-0.100989788933	-0.147820917917	0.704515951286
-0.0895017078582	-0.146946260646	0.715567579707
-0.131151986551	-0.210408166129	0.697235433151
-0.173259694158	-0.27531722543	0.663093589035
-0.188950024025	-0.307140564982	0.634895156578
-0.194669820895	-0.324018041041	0.608709456449
-0.181853544574	-0.315817027116	0.596237426374
-0.157646421303	-0.288790986314	0.597343185762
-0.126449128634	-0.25057686777	0.610537422327
-0.0779617155562	-0.188454409279	0.639570284177
-0.034913709372	-0.13522283205	0.66858605422
-0.0075571843531	-0.101972252684	0.692116672685
-0.00870802646933	-0.114564311435	0.707065090399
-0.0613136442948	-0.205100332276	0.699097323679
-0.0450490713066	-0.196064821807	0.708963067314
-0.103046647015	-0.294916572178	0.670849483358
-0.110256896739	-0.320390760872	0.651301444412
-0.12672707269	-0.353770554271	0.618657333272
-0.126076201031	-0.360497563022	0.596366682496
-0.10971227164	-0.341214916158	0.589608235354
-0.0800502346852	-0.2981117184	0.599804549356
-0.0395185237799	-0.235971173277	0.62326576038
-0.0182167800181	-0.207503262865	0.64134355828
0.0262887340719	-0.138967817964	0.673954891429
0.0402531908266	-0.127313745364	0.69313327531
0.0278464046233	-0.164744622908	0.702113453207
-0.000129439098496	-0.232956756266	0.695350727006
-0.00158732395801	-0.255353350382	0.691972820681
-0.0439358576136	-0.343782302622	0.650992217791
-0.0574188353333	-0.378825454668	0.621304451026
-0.0591711053079	-0.39065733822	0.597629429117
-0.0529754421568	-0.384924977519	0.581115820845
-0.0348973626792	-0.35397891733	0.581330305019
-0.00808621122678	-0.305067450294	0.595858986905
0.0171786561925	-0.261684272104	0.615122694413
0.0652443926135	-0.168443600741	0.653137636277
0.0653457167501	-0.185314849357	0.666967443983
0.0810269150463	-0.169491279146	0.686938978532
0.06665292638	-0.22762912957	0.68689215188
0.0464364074726	-0.293639935761	0.672899888035
0.0371729791802	-0.333004233001	0.65705382958
0.0260478341168	-0.372709776571	0.630882630441
0.0118181361894	-0.41045362285	0.595961373668
0.0135713034122	-0.412555652634	0.57524394767
0.0216727082488	-0.396245756237	0.564426557877
0.040281503035	-0.354454587809	0.571648989261
0.0686947342766	-0.290577971949	0.5945644216
0.0928082892578	-0.238368049372	0.61896794217
0.11591524408	-0.188836291644	0.645910437574
0.121374435837	-0.20202169403	0.660869277347
0.136971258495	-0.177202497422	0.679963604844
0.131396240028	-0.233026220305	0.678096908341
0.10736693233	-0.330003727649	0.649051857976
0.106719042881	-0.355377999517	0.634038838177
0.0867053089615	-0.416415527248	0.592038667463
0.084343543554	-0.429087419056	0.567079832128
0.0861290367193	-0.424838972054	0.548369665191
0.0959146295092	-0.39490824451	0.546440101514
0.112102384288	-0.347234354431	0.559170371097
0.131349257571	-0.294943251313	0.58151022538
0.158315365984	-0.215655397827	0.61721729576
0.17464011179	-0.177102541714	0.641849109532
0.184841929614	-0.176371274176	0.65791772911
0.188422040019	-0.211337510171	0.662738085875
0.181259456543	-0.286697314368	0.647636327641
0.169866964421	-0.363883123377	0.615890085163
0.164632538423	-0.402818289873	0.588511098966
0.157707476495	-0.433506598877	0.556368799606
0.155837271909	-0.439626912536	0.532397374746
0.159503171416	-0.420935574712	0.52222659682
0.167689438645	-0.382935760368	0.527006007968
0.182395898316	-0.32263026403	0.54952160796
0.197855456587	-0.264313123812	0.577419474852
0.212967611644	-0.221536012319	0.603891287373
0.228380368267	-0.180797790791	0.63003424207
0.237435707171	-0.200548009753	0.639597494045
0.241248033454	-0.251847078633	0.635010251544
0.237732049503	-0.335336565701	0.606164440415
0.239959661495	-0.365894065891	0.587222464823
0.233118178911	-0.415792961133	0.548934363459
0.227915490375	-0.438466510281	0.517342206276
0.22643555563	-0.435146067173	0.497491364684
0.228745224548	-0.406774544615	0.494799601605
0.235226361026	-0.359077808471	0.508463402928
0.245882981037	-0.292514519917	0.537889985403
0.258339510906	-0.22436739466	0.57203679471
0.27003642511	-0.187844245112	0.597596196002
0.28192318987	-0.188988388147	0.612397336225
0.290233113949	-0.261281482346	0.600780442527
0.301461086282	-0.261942471781	0.606767707855
0.304685935771	-0.326864053833	0.578332628917
0.302398613815	-0.394690494671	0.534036364373
0.30006571116	-0.419833749441	0.503534380402
0.295619182709	-0.432409393958	0.475034802158
0.293492785571	-0.418003376889	0.462248002978
0.293563297079	-0.382797545202	0.4667190505
0.297061635345	-0.328955420501	0.488620293063
0.303648535894	-0.264819332213	0.52156196757
0.31255417963	-0.222338114732	0.550334428459
0.321712116704	-0.181254575444	0.579601576379
0.335427604071	-0.195334607905	0.588313539586
0.351785615919	-0.266422271582	0.568938146177
0.36115892857	-0.321689542264	0.54456772311
0.367906756335	-0.345968041072	0.52611350737
0.36750288562	-0.398098076583	0.482059799363
0.364106535498	-0.417755794151	0.450596038159
0.360100165818	-0.413397001901	0.431472221249
0.355754943741	-0.391786534561	0.42560728168
0.353369499515	-0.349522495264	0.439316652521
0.353974440281	-0.299428072972	0.464441407762
0.355295017988	-0.223653069459	0.509110455424
0.362989587701	-0.192137048964	0.535293158891
0.372474128212	-0.171638860658	0.557236511163
0.389102313014	-0.19124125569	0.560343433336
0.407085137937	-0.238883094785	0.544713667582
0.422204810919	-0.300065893609	0.510052776561
0.429496934786	-0.349385556086	0.470132591895
0.429488400238	-0.386861443585	0.428246767294
0.425310431731	-0.393929072732	0.402440777283
0.418796141914	-0.385775089524	0.386113412862
0.411899096777	-0.354099707708	0.391559635626
0.407029874081	-0.311128309088	0.411052904545
0.402340036571	-0.246950483339	0.451184157037
0.40692593061	-0.213800563129	0.478042079502
0.409345932504	-0.162017817451	0.516568495425
0.424771863012	-0.164886606025	0.527148222649
0.450811720299	-0.221373470036	0.506317323333
0.465352000377	-0.239689390139	0.497228940605
0.481250749773	-0.297485763424	0.453820851443
0.487772702116	-0.338942457399	0.410453697537
0.486298631125	-0.363130716315	0.372732242604
0.479774568428	-0.363579082712	0.350306294413
0.470475848131	-0.345138878185	0.344509531642
0.461243702675	-0.312448182113	0.355572805286
0.452548151778	-0.260488914222	0.388777172073
0.444001948986	-0.195707292096	0.435026777508
0.444683118599	-0.152341621954	0.471147814359
0.466678367173	-0.170852592628	0.471504194173
0.47460715799	-0.151067795937	0.492185938483
0.499307378282	-0.186068254523	0.47570223802
0.522254088542	-0.239484380091	0.436951767495
0.536977103643	-0.286327685862	0.389533805851
0.540813504462	-0.316612682685	0.347083783192
0.536422739278	-0.329102034092	0.315306855851
0.52690861817	-0.322357845771	0.299120614083
0.514580293183	-0.297761439518	0.303170379732
0.502361832053	-0.258685741747	0.326245171722
0.490808203059	-0.207467077759	0.365831322491
0.481008082335	-0.14835121015	0.414982551891
0.495875851853	-0.142283665332	0.428855716567
0.517573939224	-0.153242729492	0.430463887878
0.544202636595	-0.183645811822	0.412137672568
0.553018315849	-0.175646700585	0.419487191171
0.577354385947	-0.22866665999	0.365949360972
0.587193299157	-0.262090913484	0.320556057032
0.586695869724	-0.281977032404	0.282231056934
0.578677796532	-0.28521414	0.257261261922
0.565701935683	-0.271659237031	0.250259756696
0.550943286464	-0.243691608494	0.263544028131
0.538333535578	-0.206854290834	0.291492058766
0.523063951864	-0.152006309926	0.342408325233
0.525192236941	-0.123968929976	0.372731247405
0.537653063823	-0.110521543426	0.392903193504
0.56634477462	-0.128900541991	0.381086035823
0.575051275821	-0.119549560101	0.393171552091
0.605787151603	-0.163280237708	0.345304386779
0.623065027677	-0.199100594441	0.296359716857
0.628983338376	-0.226035091794	0.248873324963
0.623471344893	-0.234621797356	0.219038248197
0.611742208602	-0.231530799357	0.2008263571
0.595519040223	-0.213179729702	0.204408272648
0.579054548742	-0.183557854346	0.226734968172
0.565609150112	-0.146969353625	0.262704654007
0.551436242294	-0.0982893836636	0.316773515247
0.551806420731	-0.0707361520135	0.352370722568
0.567654109398	-0.0642552246282	0.365017150732
0.603649404861	-0.0881218181003	0.337581979922
0.633050886428	-0.11613097856	0.300223402657
0.648236649943	-0.13186051816	0.271857144588
0.659724372591	-0.157693552943	0.223577216145
0.659534975858	-0.174516218371	0.182694946573
0.649845318039	-0.178005438605	0.157625746409
0.634154477678	-0.169379738271	0.149342272312
0.615849143904	-0.148929809967	0.16237409398
0.598432408091	-0.118497665353	0.194022279167
0.583485099242	-0.0814780139724	0.239922910859
0.581412007641	-0.0539523347894	0.27604859342
0.583428499057	-0.030053214432	0.31180831873
0.609393251179	-0.0332687092028	0.305979862481
0.633994267202	-0.0413012532437	0.29074212635
0.661945315611	-0.0636912889655	0.247228123132
0.679123745685	-0.0863131065642	0.198693319886
0.684075270796	-0.104272465607	0.153856846394
0.678346812429	-0.11447253103	0.119175263329
0.664692969083	-0.114105227054	0.0999057074488
0.646007376692	-0.102269844615	0.102075030758
0.626735362924	-0.0808941701683	0.124376335757
0.610213967734	-0.0520590077308	0.162631516572
0.599011102587	-0.0206273966742	0.208677084805
0.596985459604	0.00510532943773	0.248761716774
0.613180633675	0.0153585550238	0.261839423911
0.638770015659	0.0137107919194	0.250875792014
0.666465784454	0.00181852255258	0.217888220072
0.687360046324	-0.0144394506312	0.173062037524
0.69777029356	-0.0314663115126	0.124094113531
0.695956294586	-0.0433078627611	0.0849009221866
0.685096524334	-0.0485888279469	0.0572832040889
0.667646251929	-0.0446033177612	0.0473700247063
0.647393970431	-0.0314310685348	0.0596072182061
0.628538061254	-0.0103330140677	0.0901066049764
0.61453069235	0.0158226952361	0.132414860457
0.607759169503	0.0421933168906	0.176995582648
0.615591277667	0.0599491760796	0.203523678217
0.63528727163	0.0682565968136	0.207859719873
0.661572766511	0.066103224648	0.185454036081
0.684936060864	0.0568481879502	0.14550214027
0.698340570653	0.0455652326092	0.101542792266
0.701500313642	0.0333207469887	0.0563277806384
0.694214866502	0.0245043855465	0.0209453523656
0.678991897313	0.0223512890091	0.000840129328707
0.658956803855	0.0282372829817	0.0014512979771
0.638722839862	0.0415320613824	0.0222211774802
0.621811827063	0.0615847098314	0.0590535528911
0.61123989648	0.0852925408915	0.104002002726
0.611006156471	0.106876065228	0.142202670696
0.623879878937	0.121812085938	0.16057798377
0.647088061234	0.128419343921	0.150689792075
0.670327477634	0.1277023416	0.121024583077
0.687686767203	0.121106872939	0.0773683686297
0.694524773053	0.112087605981	0.0327084503196
0.691154312258	0.102425410675	-0.00847865785359
0.678792688896	0.0960832307463	-0.0369679253761
0.660165272405	0.0957459281179	-0.0482420025885
0.639266734317	0.102179780842	-0.03777634709
0.620298680808	0.115336808197	-0.00871791376768
0.606268226003	0.134372794027	0.03354873203
0.600633228261	0.155543655023	0.0768540182574
0.606159492464	0.174353545393	0.107858783449
0.624202520769	0.187815327611	0.112392450057
0.646445567347	0.194537616449	0.0923637965006
0.664547037676	0.195126698218	0.0583611640343
0.675139027396	0.190130243249	0.0136349074253
0.675648401496	0.181940239776	-0.0309995784217
0.666594414241	0.17359360733	-0.0667948614098
0.650206678839	0.168534203073	-0.087844748182
0.62962870516	0.168933850269	-0.0891179136155
0.609473692259	0.175321795962	-0.0694053718801
0.593077660587	0.18822144358	-0.0334685249627
0.583116680472	0.206323252154	0.0113776645885
0.582401446183	0.225960341834	0.0514743130215
0.594213977345	0.243643370574	0.0695116864497
0.612404983314	0.257304549794	0.0653806656098
0.631151245137	0.264347178124	0.0382444979991
0.643988683284	0.264875762712	-0.0016093484697
0.647948168504	0.260027232181	-0.0468602034141
0.642353620257	0.252030471394	-0.0880362523975
0.628703897277	0.244059817599	-0.117542360729
0.609522774998	0.239388716579	-0.130167451537
0.588818739829	0.239724008912	-0.121439885942
0.570763280477	0.24603647296	-0.0934455508343
0.557977194883	0.258891014915	-0.052072199658
0.552801623665	0.276479459431	-0.00755999101947
0.557528533297	0.295551000821	0.0248994417319
0.571500553266	0.313486559605	0.0339657065324
0.588350564617	0.327030446418	0.0195127280391
0.602231126627	0.333770922956	-0.0133885102921
0.608899602476	0.333744399413	-0.0564368921962
0.606589276028	0.328174562206	-0.100870723059
0.595864473707	0.319496334137	-0.137701451183
0.578820494206	0.311231296787	-0.160088869249
0.558425270608	0.306338134759	-0.163271967409
0.539299849672	0.306433167511	-0.14505310036
0.524441846168	0.31301366278	-0.109824474398
0.515958749358	0.326213244845	-0.0651129492439
0.515617078532	0.343920453274	-0.0237253493218
0.524131510325	0.363318687528	0.000197033331983
0.538311461019	0.381567687741	-0.00124982679216
0.551746186745	0.394507280255	-0.0242202726311
0.560019755903	0.400243458309	-0.062208600309
0.56037187321	0.398910162763	-0.106564587756
0.552425511171	0.391848789252	-0.148594406837
0.537706421184	0.382034090805	-0.179473165343
0.518615579955	0.373107717069	-0.193662623988
0.498853665397	0.367765945395	-0.186950777428
0.482608785961	0.367958877976	-0.16025527139
0.47177449303	0.375301999737	-0.119298035616
0.467882948229	0.389340230526	-0.0741095016095
0.471663779589	0.40779341498	-0.0383376596127
0.482062044466	0.42812290438	-0.0247392680997
0.494048887109	0.44623821919	-0.0355750650323
0.502716849415	0.458006285692	-0.0652509625656
0.504964058833	0.461992644321	-0.106683077795
0.499424614141	0.458469915623	-0.150918461993
0.486919402808	0.4493220923	-0.188717513624
0.469577787786	0.438044947667	-0.212557056154
0.450044314949	0.428254874596	-0.217706338844
0.432672639844	0.422644983292	-0.201465719298
0.420219277835	0.423558096652	-0.167493249315
0.413823751415	0.432262466411	-0.122917562021
0.414109960162	0.447710710574	-0.0797379007653
0.420658380933	0.467565306895	-0.0521885193033
0.430471423265	0.488737738615	-0.0489831299016
0.438607023362	0.505936542442	-0.0682719929297
0.441789928055	0.515695300295	-0.103403267363
0.438094979276	0.517009390387	-0.1465613454
0.427532844658	0.510568952876	-0.188620427893
0.411875743885	0.498982849067	-0.22062321138
0.393404104489	0.486151379502	-0.236478371411
0.375279196144	0.475608167165	-0.232057760618
0.361558377464	0.470324479088	-0.207305780124
0.353459876063	0.472737335551	-0.167458020793
0.351365219321	0.48342802966	-0.121621194397
0.354854207745	0.500835937793	-0.0834638009977
0.362136481188	0.522352874121	-0.0654090281645
0.369191831239	0.543559008038	-0.0722006151868
0.372426430796	0.558871482225	-0.0982727228291
0.369892749271	0.565702869313	-0.137185952685
0.360895093176	0.563492356968	-0.18037981378
0.346640228532	0.553649527953	-0.218521610599
0.329380213189	0.539560317905	-0.243657506651
0.311384644274	0.525298969918	-0.25085930779
0.296440574736	0.514524711673	-0.237055687573
0.287095851717	0.510454499576	-0.204976780638
0.283436240391	0.515175519451	-0.161102074103
0.284903993119	0.528422451043	-0.116760399789
0.289999257961	0.54808722386	-0.085808011124
0.295771494094	0.570865594542	-0.0779443764043
0.298547432278	0.590838550398	-0.0929385219141
0.296441896709	0.603254010555	-0.124657559318
0.288523100358	0.606213173658	-0.165784864551
0.275358937	0.59985173586	-0.207177906259
0.258999430134	0.586458959551	-0.240005993993
0.241696078437	0.570076609121	-0.257529130123
0.225948712301	0.554844993699	-0.255612480497
0.21539628902	0.544741622113	-0.233335122617
0.210676703215	0.542910071775	-0.195215783771
0.210974111661	0.550645657449	-0.149488590493
0.21469682415	0.566789208277	-0.109203829861
0.219389989861	0.588625970672	-0.0871382717542
0.221695450237	0.611468189258	-0.0888025315989
0.219446613649	0.628910730858	-0.111097990373
0.212049732506	0.637378864033	-0.146878703009
0.199619329636	0.635688789918	-0.188335407347
0.183806267725	0.624857615541	-0.226358871338
0.167028589246	0.60814839986	-0.252751314091
0.151246461148	0.589929051213	-0.262157935654
0.139411102807	0.574602463536	-0.251245063792
0.13377858929	0.566321085556	-0.221630919806
0.133417983384	0.567699641346	-0.179125716796
0.136627289306	0.578936778845	-0.133943331611
0.140873771686	0.597945685823	-0.099806067295
0.143091735782	0.621173809405	-0.0871239759641
0.140707126204	0.642485570868	-0.0973771802669
0.133346677021	0.656216873769	-0.125177879076
0.121253434253	0.659834520089	-0.163575465294
0.105643600533	0.652995427809	-0.203924103266
0.088898323788	0.637778658575	-0.237351368854
0.0732770037618	0.618256444399	-0.256749064216
0.0606110054354	0.598989380652	-0.257705327195
0.0538181801186	0.584826395075	-0.238464013508
0.0530204548635	0.579582704972	-0.202657577051
0.0562320165751	0.584907102173	-0.157551252643
0.0608224284557	0.59972184613	-0.115179773161
0.0635801412609	0.621112638745	-0.0889448458342
0.0616498253591	0.644283288174	-0.0853780350498
0.0541603524761	0.662480369077	-0.103041821502
0.0420524231977	0.671432306034	-0.135232043212
0.0263565900871	0.6694974731	-0.174664901915
0.00923069872516	0.657387233469	-0.212477043236
-0.00669608194017	0.638282971373	-0.240303803868
-0.0196830441537	0.616751630973	-0.252266407798
-0.0277592036468	0.597675285838	-0.24472511597
-0.0291956099303	0.586100777753	-0.218118516562
-0.025783911283	0.584952589129	-0.177408798905
-0.0203222336713	0.594540860086	-0.131780075831
-0.0162011821805	0.612568174226	-0.0944072933652
-0.0168015868144	0.635248185185	-0.0767674049827
-0.0237762936944	0.656536489102	-0.0815728811915
-0.036107414153	0.670305654357	-0.105191659131
-0.0521306000936	0.67362396265	-0.140491372825
-0.0699272686559	0.665803886527	-0.179611382174
-0.086753946352	0.648764450861	-0.213742900742
-0.100283048467	0.626619748819	-0.235374389629
-0.109281351644	0.604185130655	-0.239648242891
-0.111827136204	0.586919308709	-0.223977584424
-0.10836919071	0.579248493545	-0.191005392256
-0.101843744028	0.582872353405	-0.146820597571
-0.095806074184	0.596509304702	-0.102709832263
-0.0941025694413	0.616876210849	-0.0721148756674
-0.0994278338873	0.639205278306	-0.0629830439253
-0.111561599904	0.656856237363	-0.0753955952335
-0.128035937321	0.665169426346	-0.103792202649
-0.146702400978	0.662272322903	-0.141005114801
-0.16482533036	0.648684583988	-0.178549974579
-0.179583529381	0.62752191947	-0.208060811423
-0.189369643746	0.603499912939	-0.223038917509
-0.193215709288	0.581712267162	-0.219403013758
-0.190199125164	0.567900299238	-0.196338955057
-0.182823358125	0.565156118475	-0.157934631319
-0.174701611267	0.57362062729	-0.112034631077
-0.170000127492	0.590565097573	-0.0716546572679
-0.172332667307	0.611899553214	-0.0486007429469
-0.183051580086	0.631956750155	-0.0477608218288
-0.199699590871	0.64459471026	-0.066561499658
-0.219222866641	0.646730769415	-0.0985743865638
-0.238887730161	0.63751155166	-0.136448884242
-0.2554938648	0.618814069135	-0.171334311065
-0.26668979319	0.594710688927	-0.195649137599
-0.271682978184	0.570210941652	-0.20370171268
-0.269759001076	0.55094620416	-0.192198294803
-0.261999610248	0.541878740081	-0.162572676742
-0.252084190197	0.544535853159	-0.11989077872
-0.244149203595	0.557287032141	-0.0743295656988
-0.242524021866	0.57632712029	-0.0393023369708
-0.249976170533	0.596880063212	-0.0239903103632
-0.265834460278	0.612840687956	-0.0308075312834
-0.285965836277	0.619567743083	-0.0547895781745
-0.307134819561	0.615176015407	-0.0894907584141
-0.325989961937	0.600056529416	-0.126921629304
-0.339427235038	0.577329613121	-0.158443466728
-0.345924752372	0.551777776855	-0.177008776634
-0.345375620721	0.528525927096	-0.177763166639
-0.337953553189	0.513534712817	-0.158808389324
-0.32669622976	0.510072386621	-0.123182942446
-0.315808241608	0.517918351176	-0.0775823521368
-0.309749683044	0.533844538373	-0.0341673292749
-0.312723917659	0.553356067304	-0.00591318161598
-0.325771192424	0.571196610389	0.00140445574791
-0.345794641403	0.581721915005	-0.0121007627836
-0.368210709896	0.581971902071	-0.0406056463329
-0.389373407383	0.571148458245	-0.0770926955087
-0.405623659017	0.551102779075	-0.112908443087
-0.414549664031	0.525841059788	-0.140341158213
-0.415623169188	0.500497032557	-0.152625983569
-0.409307258324	0.480425373178	-0.145821599919
-0.397426548869	0.470953049168	-0.119907458521
-0.384200714458	0.473256511713	-0.0791964069753
-0.374007277073	0.48541527584	-0.0325170398084
-0.37144865535	0.503033090702	0.00679217669793
-0.379864943327	0.521212939699	0.0277643535855
-0.3980572513	0.534555777827	0.0272544507942
-0.421055208684	0.5388390705	0.00770513689451
-0.444256289311	0.532463848266	-0.0243526822084
-0.463645969758	0.515893082522	-0.0614760843272
-0.475826842066	0.492245400459	-0.0950009842088
-0.479316945089	0.466277560562	-0.117326526631
-0.474644366481	0.442872918439	-0.122890353926
-0.46308446035	0.427744988359	-0.108569468096
-0.448188798696	0.424324142588	-0.0762181978465
-0.43444693218	0.432001790242	-0.0313482662246
-0.426497856724	0.447058013984	0.0144102652227
-0.428855024032	0.464572673784	0.0476923993024
-0.442834395338	0.479556535161	0.0612152996741
-0.465061940375	0.487128911952	0.0532461230136
-0.489626812467	0.484857187005	0.0286559781981
-0.511979884856	0.472236013251	-0.0060725175263
-0.527937196385	0.451199937492	-0.0425790383448
-0.534966326613	0.425679266129	-0.0730205294493
-0.532681489378	0.400679227748	-0.0898629616654
-0.522407337317	0.380997485707	-0.0883074226719
-0.506819052417	0.371881174085	-0.0668296715913
-0.490426085612	0.374434770422	-0.0286220990241
-0.477735522798	0.386283911482	0.0185028113452
-0.473539207574	0.40255049893	0.0611426193942
-0.481394788341	0.418151035561	0.0877317081356
-0.500452272405	0.428269362831	0.0934813783391
-0.525115374648	0.429488346577	0.0792362939658
-0.549859120297	0.420696602647	0.0500187024837
-0.569647490536	0.402798128187	0.0138774029028
-0.58097843279	0.378741347765	-0.0216457259706
-0.582171937792	0.353280387971	-0.0478977119078
-0.574105351141	0.33094901685	-0.0585285803887
-0.558953373986	0.316633162896	-0.0495307655996
-0.540813359235	0.313890496474	-0.0211539245899
-0.524357439615	0.321715086261	0.0219685427098
-0.514244799858	0.336069435511	0.0689701353887
-0.514777224594	0.351744321215	0.106957184391
-0.5282021038	0.363630018722	0.126350768755
-0.551090553963	0.367730205172	0.124482290441
-0.576809644378	0.362458635631	0.104377451916
-0.599934852698	0.347870531101	0.0720140346277
-0.615863783776	0.325974689009	0.0347912073776
-0.621603555929	0.300869257268	0.0016215958105
-0.616873009864	0.277203254527	-0.0198092597307
-0.603434502294	0.259099949161	-0.0237346016586
-0.584678995605	0.251201726642	-0.00716384174706
-0.565422603396	0.254500725565	0.0277958357028
-0.550250686343	0.266226556587	0.0741509282679
-0.543804939562	0.281345270427	0.119257751693
-0.549884369705	0.294448648193	0.150891086375
-0.568190099035	0.301078556061	0.162843745797
-0.593334248659	0.298722134216	0.153781241967
-0.61862918542	0.287267706812	0.128445167594
-0.638761195705	0.26790170964	0.0932290334581
-0.649522919652	0.243952739666	0.0567109632167
-0.649331031532	0.21969591173	0.0266306781604
-0.638940655105	0.19941229776	0.0108190013006
-0.620999112238	0.186984291643	0.0142619113263
-0.600142437116	0.185553488023	0.0380308007503
-0.581118970836	0.193930963905	0.0786486409259
-0.56831847541	0.207974855282	0.126549150249
-0.566576194374	0.221886808342	0.167657723487
-0.578024231751	0.230726046721	0.192471602031
-0.600003082709	0.231112187617	0.196631318748
-0.625774387075	0.222475195318	0.181079710672
-0.649163604875	0.205658559313	0.151185955468
-0.664929229742	0.18320452516	0.114579972246
-0.670106267696	0.158934415989	0.0789827573533
-0.664049080283	0.13732764417	0.0532130094421
-0.648601796334	0.121745217348	0.0436325723397
-0.627476993323	0.115863099765	0.0547924595269
-0.605846704948	0.120404796695	0.0855782301261
-0.58809409375	0.132543268676	0.130711105435
-0.578821690558	0.146885289264	0.177605161826
-0.58206285282	0.15779491126	0.213548928915
-0.59826216845	0.160950275463	0.230913938942
-0.622356472361	0.154871011063	0.227209827636
-0.647281000875	0.14051088704	0.205855734452
-0.667375743862	0.119661739538	0.172417184582
-0.677980089049	0.0959611879121	0.13535102493
-0.677361370535	0.0733943986861	0.10217405518
-0.666056305755	0.0556938873396	0.0807269259351
-0.646477210934	0.0459851480452	0.0783121916534
-0.623619669063	0.0466137381688	0.0970575634899
-0.602317988678	0.056127478333	0.134506082783
-0.586729015893	0.0702902964315	0.182321941523
-0.581864866884	0.0829349751998	0.225957198052
-0.590028188639	0.0891705261624	0.255560591614
-0.609530574391	0.0859825607332	0.265329903648
-0.633906960593	0.0739403727105	0.254819508759
-0.656826573089	0.0547926937213	0.228019446838
-0.67277510892	0.0314622905894	0.191541340856
-0.678079049526	0.00815440798359	0.154045887791
-0.67195533922	-0.0111160299058	0.123951618838
-0.655892393234	-0.0235435401556	0.108798376641
-0.633484587193	-0.0266401615767	0.114272488121
-0.610118931866	-0.020101758635	0.140684474357
-0.590070980981	-0.00711429746994	0.183528760812
-0.577515288023	0.00708855390726	0.231605445266
-0.577233749731	0.0163047581279	0.270680274555
-0.589582730331	0.0166322104464	0.293335563797
-0.611145692587	0.00696709346367	0.294805166342
-0.634619191889	-0.0103522010562	0.277592059783
-0.654409026385	-0.0329160938452	0.245921758881
-0.665307697854	-0.0566580248826	0.208148327857
-0.665265252796	-0.0776058083901	0.171764078233
-0.654275884498	-0.0922738438753	0.145760092723
-0.634456041578	-0.0986186404359	0.137586697935
-0.61060446109	-0.0952024484069	0.151284758292
-0.587655517648	-0.0840161075757	0.184772652439
-0.569394608674	-0.0691801734033	0.231628947546
-0.56064268286	-0.0569692280495	0.277471174612
-0.564689489396	-0.0527195158609	0.310791606002
-0.580268297699	-0.0589921175865	0.32555833657
-0.602248883634	-0.0744444814807	0.319199766053
-0.623833302333	-0.0960171563828	0.29552941879
-0.639276019842	-0.120043389288	0.260969028367
-0.645524720965	-0.142707367062	0.221334077098
-0.640384900107	-0.159579901022	0.187834137234
-0.6252289285	-0.168618866503	0.167299756997
-0.602906347419	-0.168479896242	0.166749196379
-0.578645568282	-0.159323531483	0.188871632607
-0.55674860011	-0.144955032381	0.2286174677
-0.54117082401	-0.130435491974	0.276411023238
-0.536488990058	-0.121952670476	0.318264884856
-0.544170063727	-0.123750923794	0.344955035874
-0.561615838341	-0.13643541905	0.351373037265
-0.582600857197	-0.156661712098	0.337944417912
-0.601351620435	-0.181052881658	0.308546050287
-0.612493714033	-0.204959640709	0.270935010885
-0.613853446742	-0.224497933064	0.231913961095
-0.604498816886	-0.236247092746	0.20174698719
-0.585993768435	-0.239042818901	0.187938615983
-0.562422022443	-0.232567080262	0.195962999751
-0.538618315444	-0.219098585077	0.225460650136
-0.518026854522	-0.20297908486	0.270637959428
-0.505792576753	-0.19077553555	0.316802976614
-0.504807589156	-0.187385425135	0.353409777237
-0.515335929282	-0.195874261938	0.372364623962
-0.533361788734	-0.214189165769	0.37029342543
-0.55227885226	-0.237920216256	0.350445310407
-0.567533292052	-0.263327566795	0.316316210706
-0.574616692547	-0.285454886937	0.276161676038
-0.571456766283	-0.300339209805	0.239491823615
-0.558611305105	-0.306192530172	0.214036509962
-0.537830215852	-0.302508263413	0.208068375211
-0.514017254999	-0.290562500227	0.224709958786
-0.4910310418	-0.274152006182	0.261259681218
-0.472794068227	-0.258697282974	0.307916233486
-0.463582920814	-0.250055580946	0.351616536807
-0.465916810313	-0.252967667389	0.381514184771
-0.478266090089	-0.267960447527	0.391833816238
-0.495357545806	-0.290602922395	0.38218865766
-0.511969140888	-0.316567965317	0.355639448085
-0.523349348424	-0.341052401637	0.318058127842
-0.526444924942	-0.359579071219	0.277313592659
-0.519635227835	-0.368837393634	0.24391659934
-0.504087003978	-0.368342017602	0.224471407205
-0.482161424654	-0.358507507893	0.227266378333
-0.458679327715	-0.342448856982	0.252138841277
-0.436632461638	-0.324605877157	0.294751328143
-0.420805001998	-0.31134965278	0.341234316103
-0.414958744565	-0.308137439558	0.379663046617
-0.419830238683	-0.317883765848	0.401707261586
-0.432436384195	-0.338181099186	0.403687504065
-0.448409292644	-0.364147826273	0.385934271283
-0.462257827262	-0.390625788448	0.353477230543
-0.469942998908	-0.412435121691	0.313507544985
-0.469577422279	-0.425908060367	0.273765873865
-0.459811046341	-0.428851861745	0.245151461666
-0.442283547447	-0.421867679912	0.233474632752
-0.419993897147	-0.406731610565	0.245864992782
-0.396839569561	-0.387862451817	0.279003361711
-0.37634266886	-0.370693748623	0.324215049761
-0.363274904428	-0.361498273086	0.367969211507
-0.360214467089	-0.364688226656	0.399828216407
-0.36681750623	-0.38105216965	0.412947783834
-0.378849273633	-0.405308645177	0.406621479062
-0.392774794403	-0.432786255997	0.381970955114
-0.403863527829	-0.45795702169	0.344641406168
-0.408595656623	-0.475686261367	0.303118037126
-0.404915805104	-0.482894454544	0.267392131616
-0.393468968549	-0.479493481187	0.243630826587
-0.374764715326	-0.466495889496	0.241191041674
-0.352602692339	-0.447552154766	0.262425262069
-0.330045176658	-0.427719868055	0.301813766132
-0.311626340116	-0.413200831369	0.347062088022
-0.300930638817	-0.409156327514	0.386761708409
-0.299748181164	-0.418955215518	0.411147729083
-0.306575004313	-0.440395811513	0.415696647879
-0.318123333659	-0.467616890827	0.40049043653
-0.329663635759	-0.494810101217	0.369943753573
-0.338179201239	-0.516882379972	0.329299017139
-0.340261615515	-0.529140429692	0.288644440665
-0.334797997498	-0.530014066977	0.256617719477
-0.321742675745	-0.52021210334	0.2405033225
-0.302792408495	-0.502364594528	0.247243745403
-0.280940201007	-0.481235960968	0.276318891199
-0.258956135672	-0.461926103558	0.32035269074
-0.242463436287	-0.451390895448	0.363858678282
-0.234036018293	-0.453714287729	0.397146725605
-0.233827027747	-0.469651882798	0.413184239545
-0.240606094952	-0.494923532711	0.408662963988
-0.250822197175	-0.523213106301	0.385878652203
-0.260848862366	-0.548830054367	0.349281944276
-0.266907007795	-0.56612170851	0.307562010635
-0.267400540087	-0.572283530403	0.268725334074
-0.260140439091	-0.566505074129	0.243129863289
-0.246247703792	-0.550920839986	0.23575225883
-0.227348029818	-0.529616563363	0.251710118927
-0.205349583502	-0.507556405338	0.288434979248
-0.184718892065	-0.490911202043	0.33303247553
-0.169760123335	-0.485350910904	0.373132865802
-0.162778583898	-0.4942335929	0.398841423578
-0.163336054186	-0.515538128241	0.405244978008
-0.169777979553	-0.543095547568	0.391895603494
-0.178785706201	-0.570834743083	0.362115970013
-0.186728532103	-0.592583049812	0.322675325327
-0.191408857965	-0.604293504608	0.281051298265
-0.190625647147	-0.603921417641	0.246529848135
-0.182963405656	-0.592116478473	0.227022231754
-0.168646270109	-0.571920733001	0.229252926748
-0.1494626862	-0.548653938012	0.254157536329
-0.127481028719	-0.527423099379	0.295734163208
-0.108065632326	-0.514784778686	0.339056082707
-0.0947244234663	-0.515403365097	0.373093717965
-0.0882446138279	-0.529935294708	0.39070149345
-0.0888395658916	-0.554642341953	0.387950258248
-0.0944770313966	-0.582685891245	0.366924296216
-0.102983333581	-0.608580578954	0.330681791744
-0.109832248353	-0.625450801578	0.289422941877
-0.114451392027	-0.631215444635	0.248614955238
-0.11268444096	-0.624217897274	0.220365419266
-0.10469610689	-0.606936120106	0.208982010995
-0.0897423800557	-0.583539680188	0.221678906347
-0.0696753032239	-0.559618709713	0.254906971131
-0.0478417215466	-0.540679974879	0.298514087521
-0.0293475786333	-0.532963105701	0.33849461813
-0.0168291183268	-0.539662964842	0.365173096983
-0.0110643076253	-0.559452422749	0.372789095035
-0.0117600690754	-0.585961422537	0.36108520625
-0.0174378291827	-0.613299564661	0.332390986493
-0.0250577631488	-0.635015539324	0.293002945015
-0.0324088309142	-0.64666404504	0.250395530191
-0.0367522582878	-0.645915346114	0.213735713632
-0.0349592849873	-0.633048140947	0.192017763871
-0.026335723383	-0.611391182537	0.190610049676
-0.0105076512722	-0.58634247427	0.212744842707
0.0106527823528	-0.563178221521	0.251990594907
0.0321952838987	-0.548067044524	0.294748447838
0.0498986441748	-0.546166522703	0.329032675616
0.0621436101986	-0.558312684692	0.347310282782
0.0672541544763	-0.581534525308	0.34496870263
0.0661822794546	-0.608400833059	0.324799739223
0.0598344014739	-0.633644500241	0.289324717272
0.0518168332048	-0.650450012865	0.247580527375
0.0437897064259	-0.655980996773	0.206523270948
0.0393432651014	-0.648923354848	0.17568512103
0.0416958652747	-0.630706067786	0.163002734096
0.0512495731896	-0.606216880245	0.171999428151
0.0684245157927	-0.58091202734	0.202090729549
0.0905015800789	-0.559958023321	0.244295503799
0.111968855844	-0.549495543568	0.284174140343
0.129237295095	-0.553317622362	0.311105312069
0.141162767865	-0.569866666809	0.319903459114
0.145656610283	-0.594510043242	0.308519151585
0.143422722157	-0.620585435165	0.280377133603
0.136582229673	-0.641730609849	0.241297902177
0.126753194125	-0.653606622706	0.197926126854
0.11800626569	-0.65293746922	0.160922846017
0.113506159654	-0.640201098864	0.137504477671
0.116091542542	-0.618097763226	0.133922433332
0.127103574277	-0.592241129011	0.152490894364
0.146355574023	-0.567708490373	0.189298856302
0.169031606596	-0.550297481096	0.231154756965
0.190454462026	-0.545109176386	0.265746004559
0.207716805467	-0.553778790878	0.284367150867
0.218808095578	-0.573456378768	0.283026718141
0.221733626582	-0.598584259696	0.262472192688
0.217954019561	-0.622277837004	0.227888057915
0.209710506123	-0.638516752227	0.186819537849
0.198201833336	-0.644623847143	0.145230669421
0.188683443288	-0.638116549541	0.114222668288
0.18372703013	-0.620742569268	0.098626084625
0.187676117932	-0.596024052926	0.105442325698
0.20151167529	-0.569738861215	0.133561527763
0.222443878271	-0.547227986432	0.173407165072
0.24566591526	-0.534210929387	0.21230775766
0.267036391643	-0.53414946675	0.239680980389
0.283954171874	-0.546841704146	0.248591606454
0.29354014851	-0.568034336025	0.237517114144
0.294823734459	-0.591788233825	0.20967072887
0.288771102131	-0.612087945811	0.170381702431
0.27781027482	-0.623580029272	0.128237203738
0.264499363158	-0.624025817666	0.0906709243991
0.253972229693	-0.612512768196	0.0665334722958
0.250209950204	-0.591220787995	0.0614889570861
0.255876808403	-0.565441334545	0.0774905540462
0.272364547988	-0.540057847116	0.111831668372
0.294988665765	-0.520697693456	0.152019794621
0.318998528718	-0.51213808251	0.186283274494
0.340405787895	-0.516511830592	0.205075626569
0.356361433044	-0.531770845811	0.203968846467
0.363871099372	-0.552934477742	0.184316388005
0.362431942053	-0.574528088415	0.150080529714
0.353731111318	-0.590398292806	0.108811717706
0.339674391588	-0.597092275617	0.0678306355812
0.324778435311	-0.592385694818	0.0361863577616
0.313696740325	-0.576735153044	0.0201463190844
0.31116625087	-0.553207638737	0.0247665551782
0.320387485559	-0.527133027158	0.0501435888698
0.339707776124	-0.503412251159	0.0882213779147
0.364030552581	-0.487517055391	0.126429983926
0.38832781973	-0.48362141858	0.153208046042
0.409385639563	-0.491385129113	0.162312380319
0.423253528641	-0.507963272744	0.151321491458
0.42787425206	-0.528008959799	0.124255113804
0.423152286532	-0.546372221051	0.0858851201441
0.410698323937	-0.558085341871	0.0439060276187
0.393695081542	-0.560088647569	0.00662219840448
0.377426151529	-0.551029279066	-0.0178818631687
0.36689115403	-0.532106232389	-0.0244435874294
0.367195302828	-0.507474775554	-0.00989732464932
0.379783714684	-0.482147839655	0.0215250697087
0.401884331332	-0.46094420033	0.0603819096104
0.427594083818	-0.449009613764	0.0937647956791
0.452186144864	-0.448687229307	0.112358276264
0.472035075935	-0.458467661715	0.111585725027
0.482813846663	-0.47518876924	0.0917438414609
0.483722327504	-0.493273535593	0.0587173707338
0.474719466239	-0.508286807277	0.0177698124363
0.458457567423	-0.515777998636	-0.022306426697
0.439051785339	-0.513532699447	-0.053676334449
0.421984461892	-0.500989072798	-0.0700327513917
0.413304440891	-0.479927957391	-0.066555644134
0.417427642819	-0.455060589652	-0.0435669976133
0.434314290858	-0.430818750994	-0.00763803592134
0.458895856552	-0.412429310162	0.0292949956377
0.485398476902	-0.404163629519	0.0557466266259
0.509424815393	-0.406569902632	0.0647277031055
0.526565782312	-0.417491192846	0.0539409896482
0.533534894677	-0.433208090598	0.0271360044434
0.529597275488	-0.449209970318	-0.0105782788707
0.516001830109	-0.460767255166	-0.0516624961236
0.4960172637	-0.464576216008	-0.0878621730385
0.474841517859	-0.45884438981	-0.111956967995
0.458388440228	-0.443510834675	-0.11888998087
0.452776754498	-0.421426141272	-0.106039923168
0.461634169311	-0.396804209983	-0.0763951511875
0.482325378925	-0.374257429627	-0.0393635478262
0.508953213852	-0.358799539947	-0.00688521213519
0.535679998347	-0.353435083106	0.0112591397057
0.558034735495	-0.35739940841	0.0103833072761
0.571304588179	-0.368455820225	-0.00890675529303
0.573301908051	-0.383064588894	-0.0416672967658
0.564343784513	-0.396408345043	-0.0812049899406
0.546095744665	-0.404951433722	-0.120273330244
0.52318397842	-0.405645800822	-0.150553395858
0.501094822542	-0.397266881749	-0.166517225352
